-3.817034 -0.279260 -2.834060
-3.248150 -0.053109 -2.519478
-3.549692 0.777218 -0.610488
0.459170 0.403678 0.588468
0.511968 0.448822 0.660458
-0.768089 -0.205588 0.597263
-0.942745 -0.373189 0.642882
-0.269208 -0.866151 0.995970
-0.355209 -0.364035 0.589616
-0.384933 -0.904093 2.343515
-0.411391 -0.077830 0.580714
-0.343927 -0.351240 2.375697
0.046185 -0.080068 0.103398
0.351348 0.416492 0.705619
0.421889 0.413656 0.648448
0.475662 0.465919 0.528461
0.470738 0.538426 0.403185
0.293249 -0.696633 0.557166
0.079118 -0.000869 0.039629
0.102896 -0.003326 0.045709
0.054573 -0.017888 0.037321
0.560231 0.499907 0.734687
4.396624 1.238839 -0.625261
4.119346 1.183374 -0.647529
2.855958 -0.123602 -1.660975
3.123260 -0.004153 -1.047352
2.207217 1.017980 -0.962611
2.812488 0.480663 -1.544349
2.599307 0.370819 -1.381447
2.889880 0.005406 -1.008696
2.705122 0.311824 -1.322219
2.678407 0.267832 -1.274013
1.991839 0.690459 -0.360028
2.619378 0.321425 -1.045511
2.815176 0.110672 -0.878530
2.736638 0.227721 -1.227748
2.748485 0.179236 -1.129895
2.755289 0.182821 -1.194472
2.777028 0.168078 -1.257117
-0.421045 0.131692 0.649723
5.526291 1.917956 -3.261868
1.992216 0.715480 -0.611698
1.981409 0.730027 -0.618083
4.043324 0.041229 -2.451749
2.854919 -0.122824 -1.659740
2.342419 1.098239 -1.113413
2.200313 1.016173 -0.957810
1.957412 0.760178 -0.590206
2.217021 0.635180 -0.412042
2.522102 0.342843 -0.995192
1.993342 0.692375 -0.352335
2.894465 -0.000317 -1.008367
2.760741 0.249621 -1.526058
2.871847 -0.006672 -0.858053
2.843801 0.148755 -1.140236
2.852706 0.059113 -0.829409
2.941827 -0.050846 -0.821974
2.708944 0.254216 -1.277040
2.720282 0.238022 -1.286918
2.071610 1.083919 -0.990727
3.014412 -0.167471 -0.810174
2.978239 -0.019858 -0.726034
3.600643 -0.344081 -1.176008
3.286750 0.375846 -1.544501
2.754572 0.643622 -1.574863
3.562230 0.406199 -2.258675
2.896554 0.595682 -1.868549
2.747030 0.621979 -1.964994
2.021681 1.055833 -0.985027
2.729886 -0.537319 -0.240855
2.041238 0.676092 -0.593247
2.548380 0.676874 -1.808681
2.694637 -0.496999 -0.254550
3.936530 0.792903 -0.952593
2.874135 -0.142680 -1.677671
2.508662 0.616088 -1.307907
2.673993 0.548259 -1.466378
2.055575 1.024053 -0.938238
2.046412 1.009342 -0.911844
2.478125 0.701739 -1.651960
2.052955 1.141597 -1.055407
3.384809 -0.140208 -0.758358
2.733496 -0.480195 -0.215891
2.744983 -0.531168 -0.191496
2.438613 0.137117 -0.328974
2.593175 -0.060810 -0.397121
3.277839 -0.221719 -0.317130
1.993342 0.692375 -0.352335
0.432681 0.422908 0.656911
0.384456 0.516767 0.413151
-0.382025 -0.521136 2.428910
-0.055715 -1.685181 2.413331
0.125324 -0.708297 0.571549
0.869150 0.100323 0.262084
0.206030 -0.229259 0.145906
1.791474 -0.043013 0.736065
-0.322150 -0.458264 0.546682
4.276786 -0.502420 1.374292
1.819528 0.002185 0.506427
-0.352047 -0.802203 2.318537
-1.133995 -0.501324 0.663188
2.016336 0.056238 0.616360
-0.089395 -0.009551 0.124754
1.284734 -1.693023 1.650461
-0.187381 -1.272071 1.611901
0.172473 -0.000958 0.122336
1.412470 -0.820891 0.480969
-1.344527 -1.048478 0.391504
-1.562110 0.159119 0.839652
0.289550 -0.038874 0.265819
1.862717 -0.053606 0.652762
2.393805 0.195891 0.764761
0.216846 0.010024 0.124379
2.011055 0.132642 0.612391
-0.360786 0.054126 0.564277
0.338952 0.516355 0.500232
-1.277465 -0.121528 0.837434
-0.442553 -0.061272 0.578635
0.354586 0.447786 0.704206
-7.761165 -3.308117 0.777455
-6.199213 -2.006555 0.227805
-4.739414 0.145728 -1.866341
-4.355769 0.782748 -1.549230
-8.591139 -3.044465 0.814268
-5.936758 -0.437794 1.674345
-3.361157 0.605501 -2.070166
-6.433183 -1.932991 -0.402489
-3.369405 0.889337 -1.921797
-4.321330 -0.248518 -2.605571
-4.873019 0.811612 -1.325631
-3.465895 0.426046 -1.042990
-4.352389 0.807900 -1.662078
-6.660299 -0.120614 0.599222
-5.224403 -0.226699 -2.433470
-7.801305 -2.153281 0.017619
-5.721839 0.147326 0.176706
-8.005481 -2.757953 -0.093512
-7.735527 -2.443654 0.156468
-7.001701 -2.413095 0.380112
-5.625098 -0.352568 0.485818
-4.433646 -0.738762 -0.436575
-5.256428 -0.357567 -2.468973
-8.274961 -2.356904 1.141204
-3.229947 1.171063 -1.928225
-7.612974 -1.916894 0.180145
-5.328887 -0.945109 1.153356
-4.412796 0.787532 -1.506794
-4.901897 0.907812 -1.742939
-4.131302 -0.174947 -2.469270
-3.920888 0.806163 -1.324846
-3.386378 1.006695 -1.909994
-5.560480 -0.239418 -1.168471
-5.358669 -0.880039 -0.949653
-4.805353 -0.865753 -1.777576
-5.418158 0.017496 -1.374830
-4.432132 0.145145 -1.175643
-5.149447 -0.650961 -0.161868
-3.787737 0.338524 -0.945428
-4.832086 0.153344 -1.018089
-12.054467 -0.871814 3.597020
-7.117402 -1.521660 0.371828
-4.686930 0.242327 -1.807006
-5.811527 0.602957 -3.029335
-4.852684 -0.082005 -2.301519
-6.365055 -2.134868 0.297122
-4.833823 1.708836 -2.197843
-4.031562 0.495463 -2.220257
-4.207587 -0.219216 -2.569341
-4.116430 0.511741 -1.664263
-4.434185 0.622579 -1.642629
-6.449774 -0.456019 -1.446292
-5.871329 -1.059360 -0.891271
-4.712398 0.158713 -0.522376
-4.363533 0.205502 -0.632683
-4.138005 -0.254876 -0.836445
-7.317088 -2.641094 0.489274
-9.153227 -3.899616 1.224847
-4.703649 -1.656064 -0.193849
-5.838037 -1.262929 1.609138
-5.698186 -2.409927 0.657199
-5.214223 0.095829 -2.170335
-8.735629 -0.179835 1.592297
-4.224941 0.742956 -1.446182
-3.992349 0.700006 -1.403112
-7.460904 -1.837098 0.115249
-6.342809 -0.326779 -2.115043
-6.802412 -0.735933 -3.031411
-6.303121 -1.597147 -0.924174
-7.195978 -2.274861 0.306376
-5.051779 1.141626 -1.968339
-4.099613 0.408534 -1.092925
-7.529085 -2.023681 0.002136
-7.890122 -2.309422 -0.103961
-8.625867 -2.674818 -0.401113
-7.315848 -1.341714 0.140462
-5.149447 -0.650961 -0.161868
-3.413987 0.507423 -1.080552
-7.446644 -1.759031 -0.061191
-4.607620 -0.066803 -1.983778
-5.241824 0.981411 -1.875382
-4.141113 0.573567 -2.254926
-6.600799 -0.506719 -0.614917
-4.330122 0.093260 -1.368000
-3.508894 1.042833 -1.242423
-7.554793 -3.232109 0.805192
-3.363606 0.966914 -1.865131
-4.120239 -1.501807 -0.123347
-3.699243 0.724050 -1.256865
-4.648946 -0.667782 -1.967011
-5.653962 0.149545 0.146743
-4.864811 -1.578056 -0.041946
-4.611321 -0.192193 -2.235243
-7.401728 -2.607811 -0.230290
-4.512940 1.491048 -1.993407
-3.369614 0.889992 -1.919541
-4.030297 -0.091744 -2.255870
-4.988516 -0.087106 -0.798894
-3.849464 0.579454 -1.347551
-3.168515 1.043100 -1.641042
-4.451773 0.464320 -2.540229
-4.637489 -0.073977 -2.002132
-4.400633 0.168597 -0.993410
-6.358705 -1.910987 0.193108
-7.083832 -2.357657 0.313719
-6.390867 -2.187401 0.295770
-3.208609 1.068432 -1.899984
-7.669281 -2.090071 0.060753
-6.465439 -0.781288 -0.059170
-7.943795 -2.776355 -0.013452
-4.358092 -0.277192 -2.645587
-5.615511 -0.358373 -2.406883
-4.920344 0.066700 -0.858040
-5.078366 -0.004223 -0.611749
-4.553046 0.557402 -1.650979
-5.296352 -1.170194 -0.225517
-14.088427 -5.900765 1.628307
-4.715749 0.135876 0.649259
-4.557768 -0.452943 0.372513
-4.042997 0.324892 -1.047722
-7.302539 -2.536779 -0.267073
-4.581532 1.537347 -2.037641
-4.028209 -0.131334 -2.319148
-0.443747 0.170620 0.743504
-0.371378 -0.509720 2.399402
-0.469510 0.225764 0.736063
-1.267613 -0.662640 0.689690
-0.361066 -0.261340 0.621294
-0.434439 0.209149 0.691125
-0.351288 0.246763 0.700984
0.078620 -0.000789 0.039650
-0.022287 -0.012604 0.041375
-0.373734 -0.211158 0.618448
-0.449738 0.030664 0.613176
0.087254 -0.002089 0.041092
-0.751710 -0.219451 0.595184
-1.187273 -0.268533 0.725112
-0.355340 -0.298838 0.618212
-0.343198 -1.262272 2.188211
0.559380 -0.937033 0.854778
1.616198 -0.030287 0.774987
2.763108 -0.340349 1.108533
1.008971 -0.101819 0.297413
0.687853 -1.350506 2.008396
-0.238652 -1.375844 2.027812
-0.217138 -3.502429 4.988030
-0.341216 -0.540047 0.629181
-0.117896 -1.398778 2.969230
3.625333 -0.435590 2.482867
3.003375 -0.276584 2.103025
2.493640 0.098945 0.722537
2.567128 0.031235 0.739109
0.763357 0.276696 1.193906
-0.365694 0.082579 1.384484
0.345240 -0.168567 0.138465
0.942834 -1.484304 1.829415
3.310050 -1.150563 0.873876
3.159091 -0.343671 0.864442
3.883476 -0.433041 1.156166
2.525725 -0.085341 0.740331
-0.441920 0.234454 0.756088
0.010540 -0.765864 0.738278
-0.135945 -0.988455 1.024621
-0.777224 -0.145373 0.623975
-0.366447 -0.141795 0.668138
-0.860232 -0.364978 0.595306
-1.152101 -0.601788 0.631887
-0.214325 -0.218206 1.487921
-0.366780 -0.806795 2.358349
4.074592 0.085972 1.623026
2.386741 0.042533 0.976775
-0.612802 0.485117 0.518796
0.125766 -0.034447 0.067869
-1.565503 0.224339 0.851271
1.819919 0.241933 0.497286
4.174725 -0.495380 1.340905
-0.147544 -2.149328 4.427155
1.270778 -1.695034 1.641008
1.460602 -1.571583 1.236569
0.388945 0.524784 0.420805
3.453374 -0.316150 2.425542
2.889683 -0.100707 0.766290
3.683224 -0.133567 1.056986
0.530291 -0.023304 0.337899
-1.782944 -0.594223 0.726100
0.178357 -0.007301 0.080569
-0.521818 -0.743395 4.763650
1.530240 -1.238209 0.530940
3.462396 -0.378629 0.941790
5.090724 -0.583763 1.403159
0.601652 0.624835 1.126576
1.351668 -1.814022 1.746675
3.387204 -0.935326 3.916496
2.333243 -0.286308 0.973949
1.407022 -0.048019 0.757875
-1.176877 -0.558358 0.664580
-0.253487 -0.501289 0.481483
0.429176 -0.695851 0.538652
-1.249925 -0.974292 0.362388
-0.429369 0.172991 0.729308
0.084777 -1.114862 1.433622
3.114208 -0.114328 2.208581
3.743981 -22.137226 45.229420
-0.974226 -1.349346 9.561851
1.767126 -0.192273 0.538493
1.456005 0.177689 0.409571
0.032496 -0.008441 0.060514
0.574735 -1.069164 0.425287
2.484099 -0.308955 1.164020
0.365077 0.433694 0.741591
-0.462172 -0.095968 0.583248
-0.823890 -0.086035 0.679847
2.496431 0.235557 0.782991
2.513790 0.100440 0.727781
4.296618 -0.074142 2.210725
2.716169 -1.540211 1.799930
0.324224 0.488173 0.556200
0.367224 0.443008 0.507562
4.233232 -0.472078 1.256238
-0.614672 -0.517188 3.618980
1.785396 -0.032211 0.851261
-0.266798 -1.027026 2.340644
1.999575 -0.044487 0.953051
0.342657 -0.167026 0.137348
0.756687 -0.610239 0.257419
-0.255679 -0.865723 0.987799
0.323138 0.500981 0.562866
0.341897 -0.166705 0.137057
-0.356570 0.461437 0.616030
-0.010260 -0.014191 0.062897
1.447055 0.120349 0.456499
1.275437 0.084754 0.393165
2.574710 -0.001181 0.717673
2.595661 0.031601 0.745244
-0.007019 -0.039180 0.065276
0.342399 -0.167006 0.137275
2.523375 -1.411147 1.648670
3.169417 -0.324349 0.924193
0.086466 -0.048267 0.065760
2.102369 0.061916 0.794052
1.618079 0.001272 0.463134
1.351023 0.139245 0.432565
1.671116 0.056709 0.511527
2.049268 -0.157229 1.156460
2.343232 0.424390 0.610391
0.488657 -0.890723 0.359207
-0.833845 -1.023984 0.369150
-0.778067 -0.035249 0.668984
2.179177 -0.239892 0.645472
0.032460 -0.008384 0.060573
1.430161 0.176206 0.401053
2.104899 -0.042583 0.570219
2.089273 -0.054237 0.847523
0.388177 0.525639 0.420838
2.066724 -0.186815 1.327817
1.739598 -0.206189 0.920139
1.754645 -0.218118 1.092670
1.419619 -0.826151 0.484422
0.125705 -0.711959 0.574199
0.492915 -0.898095 0.361964
-0.384855 -0.211071 0.601843
2.837736 0.025729 -0.851896
3.025744 -0.172757 -0.943027
2.920295 -0.022970 -1.015595
2.649032 0.337116 -1.498166
2.795655 0.186462 -1.120087
2.729271 0.194651 -1.122534
2.750117 0.200603 -1.247112
2.766366 0.174483 -1.200815
2.874222 0.040260 -0.831437
2.076442 0.820253 -0.574999
2.805949 0.173338 -1.344384
4.062409 1.255275 -2.106048
2.335604 0.136221 -0.101331
2.877703 -0.045311 -0.340807
3.119581 -0.265504 -0.821015
2.840182 0.096034 -0.722079
3.790351 0.802793 -0.935395
2.672539 0.320495 -1.521329
2.179130 1.114942 -1.097061
2.743831 -0.454548 0.350510
3.007077 0.190411 -1.029999
3.485604 -0.260401 -1.145998
3.842793 0.120270 -2.290926
2.712648 0.530685 -1.501369
2.416413 0.734237 -1.380901
2.743623 0.622731 -1.960098
2.513637 0.688160 -1.754333
3.495697 -0.218094 -0.761369
1.991914 0.696326 -0.364854
2.691799 -0.414781 -0.239029
2.711799 -0.475698 -0.211657
3.530366 -0.332103 -0.629845
2.416001 1.360640 -1.592993
2.724508 0.370779 -1.539155
2.697963 0.377431 -1.517109
2.727706 0.195421 -1.124671
1.889392 0.884163 -0.673736
2.829956 0.075640 -0.826769
2.708553 0.321446 -1.496647
2.596348 0.372859 -1.377743
2.587046 -0.054622 -0.400024
2.811676 0.073438 -0.980601
2.789999 0.189957 -1.118954
2.779682 0.162966 -1.154805
2.135448 1.175459 -1.192493
2.346024 1.402451 -1.604032
3.536882 0.344382 -3.419118
3.138641 0.431013 -1.458762
3.537642 -0.126772 -0.649402
3.021119 -0.606635 0.021908
2.635519 -0.107302 0.276979
1.994095 0.692578 -0.364487
2.515232 0.442298 -0.127558
3.408052 0.450729 -2.119733
2.451701 0.167033 -0.724554
2.413917 1.353986 -1.585406
2.229037 0.791635 -0.506894
2.846868 0.065255 -0.900451
2.926031 -0.010907 -0.834233
2.619439 -0.098486 -0.386428
2.756722 0.212232 -1.105118
2.761271 0.209741 -1.121002
2.838248 0.088347 -1.173042
3.828772 0.443018 -1.151033
2.647933 0.384377 -1.377494
3.056583 -0.066350 -1.364136
2.763295 0.198182 -1.327021
2.950312 -0.077217 -0.866487
2.157071 1.194541 -1.228037
2.692229 0.305599 -1.540123
3.082821 -0.204863 -1.163965
4.540394 0.011726 -4.711713
3.026731 0.753258 -0.408839
4.644312 0.742608 -1.043505
2.686223 0.541803 -1.471272
3.099919 0.139201 -0.659118
3.470093 -0.202360 -0.756126
2.421930 0.731940 -1.387125
2.016696 0.692361 -0.601063
2.663929 -0.145999 -0.378074
2.797066 -0.668779 -0.202253
2.747005 0.055298 -0.267212
3.227340 0.390948 -1.519353
2.715448 0.633618 -1.851019
0.149120 1.484869 -1.704154
-1.215900 1.995174 -1.212206
-0.004308 1.473887 -2.546543
-1.458704 1.816545 -1.344431
0.212007 0.871875 -2.014495
0.169063 1.409896 -1.698305
0.162351 1.435067 -1.724503
0.168000 1.478220 -1.660444
0.096907 2.006412 -3.038612
0.165472 1.474921 -1.714517
0.400351 1.519838 -2.330945
0.150432 1.590773 -1.975907
0.125316 1.466208 -1.991055
0.930339 1.820670 -2.866669
0.275454 1.626951 -2.159306
-0.021447 1.662481 -2.710878
0.163856 1.496765 -1.702063
0.209807 1.543416 -1.788639
0.172457 1.515381 -1.650768
0.124639 1.472131 -1.990528
5.660254 0.652652 -1.216477
2.954889 -0.324296 -1.048772
3.114663 0.538408 -2.609852
2.539133 0.708830 -1.369851
3.054639 0.587458 -1.541589
2.497712 0.637937 -0.117600
2.822125 0.203352 -1.280011
2.697829 0.658512 -1.805102
5.145703 0.779537 -1.160627
2.999192 0.414164 -1.779101
2.770002 0.205275 -1.350545
2.798547 0.256526 -1.385338
2.694569 0.348757 -1.357903
3.026619 -0.220774 -0.937318
2.594182 0.700586 -1.292722
2.621861 0.685363 -1.504090
2.837008 0.625597 -1.827064
2.557971 0.710183 -1.246780
2.951016 0.600564 -1.861266
2.823390 0.173314 -1.145955
2.666880 0.366050 -1.464891
2.794945 0.257838 -1.380923
2.757077 0.221249 -1.278640
2.696338 0.436933 0.298777
2.981420 -0.356062 -1.060751
2.922572 0.486951 -1.564834
2.895626 0.496289 -1.540326
2.857115 0.498342 -1.534514
2.267895 0.984042 -0.846197
2.653914 0.674946 -1.601009
2.900050 -0.023582 -1.087967
2.628243 0.685701 -1.422837
2.702089 0.661336 -1.676918
2.624661 0.683278 -1.528588
3.192936 -1.041047 0.222573
2.831737 0.631392 -1.666825
4.760205 0.048321 -1.349757
3.549611 0.292267 -1.703758
2.934038 0.596344 -2.002261
3.194619 0.523077 -2.453384
4.051568 0.064911 -2.615690
2.759832 0.233564 -1.087504
0.623830 -1.912692 5.030452
0.649963 -1.287291 0.780156
0.655097 -1.245126 0.790887
0.409986 0.537497 0.413007
0.884074 -0.062801 0.699471
0.725233 -1.424807 1.128406
-0.806876 0.087316 0.719244
-0.476752 -0.096877 0.593026
0.098248 -1.094588 1.411159
2.787605 0.172685 -1.204597
2.797316 0.224460 -1.257041
2.978062 -0.060310 -0.852459
-0.311349 -0.708819 0.532073
1.343009 -2.231935 2.604993
-0.435900 0.206923 0.686771
-0.006676 -0.832338 0.786343
-0.346000 0.147427 0.759916
-0.434695 0.207214 0.686809
0.022698 -1.239929 1.812420
-0.425607 0.064671 0.635268
0.537618 -0.957381 1.242750
0.884157 -1.193676 0.732271
-0.386460 0.160804 0.799402
0.205786 -0.036288 0.150523
-0.442015 -0.012720 0.615815
-0.310837 -0.448180 0.542164
0.730874 -1.432259 1.136728
-0.401329 -1.118009 1.579452
0.613715 -1.141976 1.619656
3.186776 -0.071495 -0.327655
2.750483 0.238285 -1.305538
2.789766 0.187897 -1.370327
2.770126 0.209888 -1.334737
5.073144 0.326435 -1.364775
2.697906 0.323100 -1.376051
3.367177 0.248997 -0.230243
2.888303 0.027318 -0.988824
2.709897 0.243008 -1.142722
2.896706 0.014785 -0.879198
2.228000 0.957364 -0.803113
2.972042 -0.344205 -1.054851
2.912708 -0.280945 -1.033856
2.854283 0.099071 -1.193028
3.284632 0.379466 -1.735089
2.698998 0.662110 -1.672001
2.907007 -0.281345 -1.004390
4.803263 0.041733 -1.363086
4.025657 0.343617 -2.840008
2.840999 0.491440 -1.595467
2.753232 0.529881 -1.488752
2.742376 0.652185 -1.652159
2.776216 0.219162 -1.098577
2.903609 -0.022513 -0.856535
4.007332 0.578167 -1.120742
2.770119 0.249213 -1.220217
2.535417 0.558032 -0.048233
4.300734 0.468093 -1.162879
4.239128 0.243782 -1.091858
2.674108 0.360767 -1.474643
2.919315 -0.016494 -0.811514
2.709728 0.340395 -1.384329
2.928560 -0.026986 -0.940729
2.226918 0.957150 -0.801980
2.796633 0.641032 -1.723699
3.025860 0.444851 -1.681453
2.955911 0.599157 -1.867874
4.508582 0.802790 -1.061206
3.101652 1.336252 -1.673560
2.751546 0.561185 -1.356737
3.084413 -0.162716 -0.188959
2.744270 0.256164 -1.460171
2.814566 0.631121 -1.793053
2.711548 0.660797 -1.607287
2.705925 0.325980 -1.455014
3.256131 0.307284 -2.102579
3.561141 0.172959 -2.470921
3.554185 0.157649 -0.240267
2.881013 0.000863 -0.848743
3.991376 0.307766 -1.034865
3.413472 -0.004497 -0.314118
2.327511 0.684068 -0.335605
2.709198 0.305805 -1.249155
2.691573 0.354380 -1.363976
2.913817 0.034735 -0.964417
2.706043 0.316903 -1.386404
2.814115 0.206698 -1.278719
2.932230 0.593192 -2.094864
2.834956 0.629956 -1.788362
3.130271 0.540798 -2.345689
2.330028 0.726623 -0.883305
2.870978 0.621799 -1.746320
3.093666 0.557355 -2.045109
4.124137 0.242643 -1.163844
3.119925 1.344256 -1.691754
3.540585 0.445437 -2.366301
2.640471 0.068823 -0.240436
3.651600 0.837461 -0.008782
3.618798 -0.125258 -0.277173
5.244118 0.296415 -1.391172
2.692935 0.364094 -1.434567
2.251506 0.410968 0.143628
2.922638 -0.041575 -0.859852
2.708504 0.336428 -1.386932
2.783625 0.167746 -1.183079
4.899403 0.394151 -1.145536
2.846737 0.105903 -0.942719
2.327348 1.119843 -1.111620
2.390202 1.081381 -1.070777
2.809822 0.171005 -1.390693
2.861993 0.613103 -1.948883
2.673223 0.666324 -1.646633
3.791429 0.338512 -3.726648
3.934771 0.308538 -3.665406
2.646816 0.596115 -1.252576
2.858862 0.481244 -1.618439
3.881951 0.817988 -1.061046
3.422609 0.481297 -1.933142
4.198374 -0.672991 -0.925459
3.516041 0.447016 -2.336499
2.566154 0.711893 -1.161278
2.590482 -0.043178 -0.384125
2.627203 -0.030586 0.813803
2.953991 -0.249651 -0.097694
3.131198 -0.464052 0.431704
3.167624 1.364253 -1.739352
0.418657 1.137261 -2.242811
0.129888 0.924037 -2.042165
2.080374 0.729157 -3.808871
1.409625 2.010541 -3.153289
0.664760 1.190751 -2.169826
0.228077 0.928756 -2.048377
-0.520308 1.658372 -2.755209
0.495841 0.975123 -2.100659
0.758585 0.971039 -2.052278
0.224721 2.439085 -3.527888
0.167878 1.414036 -1.872887
0.402182 1.298746 -2.406162
0.238858 1.416430 -1.871977
1.979994 1.535995 -2.691534
0.226516 1.095826 -2.108246
2.082823 0.728695 -3.811940
0.104126 1.212152 -2.316283
0.132278 1.005312 -2.123146
0.313541 1.479778 -1.896434
0.706488 1.076542 -2.205984
0.368914 1.126302 -2.226213
0.133783 0.921689 -2.039936
0.171960 1.364725 -1.985901
0.162616 1.433803 -1.871674
0.606536 1.203332 -2.200511
0.787079 1.496677 -2.622504
0.266850 1.632900 -2.181276
1.416543 2.017772 -3.161520
-0.136094 1.288344 -2.213543
-0.183226 0.984700 -2.101222
2.150293 0.725420 -3.885801
1.650519 0.735159 -3.302845
0.887243 0.492775 -2.698876
0.169713 1.808424 -2.888789
0.383350 1.146599 -2.258795
0.983065 0.548959 -2.588094
1.385601 1.245483 -2.373347
0.492116 1.193004 -2.186587
0.460119 1.130785 -2.143894
0.122029 1.506862 -2.126450
0.249996 1.654787 -2.115145
-0.041325 1.022328 -2.139006
0.146301 1.450942 -1.995184
0.266850 1.632899 -2.181276
0.914238 1.365219 -2.498311
1.315957 1.763494 -2.901033
-0.068118 1.839909 -2.925958
3.488975 0.742787 -4.269868
0.376989 1.268905 -2.386449
0.200488 1.526425 -1.878663
-0.156257 1.202199 -2.115766
0.702361 1.086293 -2.191703
0.930664 1.286636 -2.416549
0.291452 1.500119 -1.759048
0.209426 1.443330 -1.867326
0.232461 1.451969 -1.857817
2.260871 0.718223 -4.006218
1.189974 1.150534 -2.289244
0.454042 1.008680 -2.131822
0.450393 1.004568 -2.127448
1.907346 1.992171 -3.121576
0.482547 1.600571 -2.406493
0.266967 1.501069 -2.235632
-0.899247 1.588974 -2.362927
2.134062 0.578480 -3.644083
0.919662 1.129255 -2.261777
0.374680 1.240449 -2.357038
0.394090 1.480654 -2.598900
-0.455039 1.301342 -2.199855
0.221375 1.447930 -1.858467
0.225522 1.494423 -1.853770
-0.174920 2.069270 -3.148124
0.060733 1.887373 -2.955677
0.737917 0.959568 -2.092727
0.460704 1.020928 -2.144272
0.764976 1.466684 -2.585727
0.422315 0.952117 -2.074493
1.418650 1.655899 -2.791310
2.268116 2.271985 -3.395099
0.321486 1.557577 -1.896680
0.220781 1.392371 -1.587849
0.274248 1.571918 -2.167215
-0.257786 1.010217 -2.124873
0.144204 1.458446 -1.996447
1.131515 1.121862 -2.260336
-0.568052 1.708412 -2.803616
1.951741 1.458237 -2.611568
2.999104 0.636305 -4.339590
1.614984 -0.037147 -4.074446
2.532206 0.704794 -4.303174
0.540170 0.912969 -2.038182
0.275363 1.576272 -2.172479
-0.124198 1.944957 -3.030502
0.108401 1.702366 -2.782046
0.243989 1.393627 -1.599025
2.756834 -0.015334 -4.296552
0.843689 0.585830 -2.471911
0.316154 1.427552 -1.803266
2.414024 0.513717 -4.028392
2.294482 -0.334695 -4.654070
3.635496 0.487035 -3.716008
0.138384 1.629690 -2.789997
0.257394 1.328379 -1.865640
-0.555071 1.197384 -2.305003
-0.010743 1.414038 -2.507736
-0.691572 1.816577 -2.924921
2.369601 -0.212121 -4.449376
2.235222 -0.015711 -4.128500
4.044139 0.574972 -5.287679
7.287479 -7.501145 14.353698
-0.066049 -0.192586 0.268655
0.065719 -0.322791 0.305246
4.188188 -1.187974 8.278228
6.280588 -2.387261 8.005779
3.303766 -0.074506 1.416444
0.073747 -0.282522 0.241866
1.525146 -0.887955 0.585512
1.555337 -0.908400 0.597555
-0.277716 -0.967137 2.337376
7.042058 -6.649062 11.135738
1.545167 -0.901850 0.593600
-0.023415 -0.409310 0.283110
4.231326 -1.853764 8.905635
-5.958388 0.114421 1.363933
-0.318109 -0.671769 0.567509
-0.470378 0.173589 0.673823
0.523763 0.395986 0.828026
0.617012 0.359894 0.912944
0.368375 0.395341 0.718503
7.413797 -5.183792 10.047787
4.202694 -3.622049 6.560972
2.963680 -1.470036 1.297569
-4.955759 0.074208 1.165326
4.362715 -1.824597 8.496067
-1.508803 -0.604457 0.465046
3.925974 -1.867748 3.714340
2.561636 -1.686516 1.300646
-0.616512 -0.090465 0.299620
0.259567 -0.044524 0.181084
0.736024 -1.463724 1.141590
0.052907 -1.145057 1.456999
-0.278560 -0.911442 1.011452
-0.378856 0.208300 0.810402
-0.391990 -0.511460 1.322174
0.477135 0.437777 0.699724
0.474913 0.420708 0.775805
-0.336832 -0.468672 0.559181
1.128082 -1.321096 0.861938
-0.430557 0.065473 0.636187
-0.355479 -0.391852 2.752443
-0.409133 -0.100615 0.626834
-0.447150 0.156625 0.722478
0.405669 0.283122 1.147423
-1.448017 -0.561994 0.497197
1.365511 -1.224227 3.020276
1.103140 -1.275365 0.785337
-1.596812 -1.110450 0.550121
-0.304412 -0.689944 0.520340
0.489873 0.484850 0.530625
0.140649 -0.707359 0.585343
-0.433405 -0.094008 0.568750
1.990610 -0.324804 1.534608
0.408893 0.288247 1.164052
0.935040 -1.444951 1.812579
-0.410121 0.153733 0.812990
0.913234 -1.275256 0.764151
-0.393713 -0.223779 0.613338
2.713788 0.261928 -0.242032
4.539387 0.300242 -1.322382
2.244670 0.648577 -0.414677
3.166469 0.581055 -1.949264
2.594271 0.015582 -0.224398
2.566006 0.658523 -0.974287
2.500498 -0.001119 0.119454
4.295824 0.252195 -0.943963
2.210352 0.698451 -0.274029
3.885146 0.722546 -0.950917
2.608877 -0.445543 0.392707
3.158982 0.580443 -1.832009
3.256415 0.558817 -2.074904
3.257448 0.432655 -1.416711
3.146286 0.112864 -0.310252
3.085397 0.119933 -0.308818
3.662980 0.160441 -0.406232
3.359013 0.211727 -0.251053
3.522563 0.275253 -0.369530
2.609724 0.028554 0.064559
3.339236 -0.004384 -0.267934
3.510215 0.743291 -0.853817
3.907429 0.599939 -0.935228
3.823725 0.503774 -0.990552
3.994662 0.530733 -1.014486
2.978034 -0.019045 -0.237459
3.750302 1.186877 -1.335779
3.144530 0.583454 -1.813147
2.268978 0.714202 -0.361044
4.103847 0.266314 -1.088768
2.555855 0.476053 -0.457862
2.429844 0.654471 -0.162247
4.550429 0.564246 -0.646671
2.711021 0.635335 -0.063999
2.620622 -0.224713 0.084679
2.825857 -0.482386 0.008985
2.507199 0.673106 -0.697034
3.315684 0.325472 -1.131501
3.574583 0.065435 -0.498757
3.169027 0.132444 -1.170464
3.564279 -0.126324 -0.233387
3.597096 -0.190179 -0.225102
2.860878 0.358758 -0.218769
2.909307 0.487486 -0.160784
3.991638 0.192867 -0.398836
4.228194 0.253813 -1.030436
2.955815 0.292932 -0.540574
2.383008 0.326270 -0.136404
3.965988 0.692633 -0.982825
2.927480 0.241010 -0.579122
3.018434 0.236079 -0.840439
2.798437 0.416958 -0.218190
2.715792 0.515705 -0.234396
4.066803 0.443155 -1.070318
3.773429 0.788680 -0.787217
2.331758 0.447530 -0.205304
2.375255 0.307656 -0.101465
2.517791 0.104348 -0.204452
2.993645 0.244162 -0.328426
0.498790 1.124465 -2.191337
0.482596 0.919164 -1.956308
0.476506 0.981716 -2.000165
0.488065 0.821435 -1.896286
0.484681 0.980751 -1.999880
0.348926 0.961084 -1.964140
0.581315 0.886748 -1.938496
0.483861 0.906286 -1.947140
1.117426 0.968530 -2.026557
0.459068 0.923000 -1.957592
0.417269 1.336589 -2.415721
0.325327 1.264372 -1.836614
0.333254 1.252931 -1.863491
0.489457 0.888285 -1.934828
0.450937 0.925490 -1.959277
0.362212 0.972326 -1.974405
4.099168 0.738541 -4.645483
0.299931 1.170527 -2.242355
0.133208 1.108650 -2.043834
0.482369 0.921475 -1.957972
0.284636 1.254289 -2.027965
1.293937 2.842279 -4.033857
1.926902 0.592454 -3.401511
0.545186 0.875717 -1.928707
0.552633 0.886037 -1.936389
0.479379 1.085810 -2.073988
0.489374 0.889900 -1.935917
0.226865 1.116243 -2.158813
0.512833 1.433969 -2.497077
0.395270 0.953818 -2.024842
0.275146 1.123659 -2.193856
0.492135 1.333743 -2.432185
0.232430 1.448333 -2.518432
0.415931 1.202805 -2.284231
0.112610 1.143538 -2.221947
0.326486 1.268179 -1.856336
0.358086 1.509875 -2.598192
0.347555 1.259714 -1.792643
2.055727 1.467626 -2.573300
0.374051 0.964795 -1.967749
0.353123 1.392975 -2.087974
0.395572 1.299803 -1.885636
0.439807 1.368513 -2.449656
0.494557 1.210258 -2.285691
2.481172 1.795307 -2.140888
0.502177 1.238022 -2.323499
0.546520 1.268764 -2.359644
0.351799 1.534470 -2.626230
0.327276 1.315804 -1.794253
-3.147770 0.759940 -0.855193
-3.124072 0.427518 -0.921410
-2.643733 0.561497 -2.448424
-3.956405 0.487523 -2.228837
-3.428598 0.086738 -1.163306
-4.497467 -0.756918 -0.514814
-3.062697 1.209913 -1.869277
-3.005573 1.199596 -1.869150
-3.269626 1.397202 -2.144181
-3.916725 0.738263 -1.651843
-3.181730 0.576104 -1.597725
-3.837631 0.693268 -2.051125
-3.131346 0.292496 -2.434091
-4.037095 0.152974 -2.452154
-4.467524 -1.122963 -0.142198
-3.143676 -0.072717 -2.699034
-2.962055 -0.093739 -2.129739
-2.763724 1.499556 -2.482784
-4.218966 -0.213647 -1.571996
-3.414516 1.194470 -2.070944
-4.022205 0.664538 -2.354098
-2.598965 0.484606 -1.444763
-4.751285 0.674087 -2.486747
-3.404200 0.555871 -1.629766
-2.743271 0.473179 -1.199457
-2.958969 0.483237 -0.956901
-4.905201 -0.170066 -2.265611
-3.907969 0.078945 -1.861093
-2.696931 0.546575 -2.881963
-2.940691 0.508021 -2.671378
-3.011135 0.331711 -2.222981
-3.139296 1.082570 -2.049187
-3.275035 0.991772 -1.702636
-3.543754 1.145159 -1.869066
-3.675477 0.525555 -2.140498
-3.250511 0.795461 -0.803260
-2.825298 0.939174 -0.842252
-3.113267 0.736840 -0.811827
-3.251815 0.461750 -0.748580
-3.432113 0.081369 -0.509351
-2.927533 1.352964 -2.315231
-3.609092 1.634848 -2.389746
-3.046495 0.790890 -1.459280
-3.494547 0.056177 -1.160417
-2.869292 -0.231265 -3.306178
-2.717723 1.228218 -1.829983
-3.173952 1.387609 -2.059770
-3.028966 1.158216 -1.885716
-3.271576 1.191122 -1.947826
-3.647307 1.334183 -2.000237
-3.314801 0.164925 -1.931553
-3.669433 0.275797 -1.302055
-3.317755 -0.010800 -0.913014
-4.004808 -0.364761 -0.703461
-3.394626 0.576972 -1.809433
-3.568376 0.539315 -1.469393
-4.502732 0.461589 -2.054921
-2.603730 0.553438 -2.062850
-2.711125 0.574400 -2.754998
-2.696891 1.308476 -2.229541
-3.352834 1.052236 -2.067343
-3.007649 1.539107 -2.434829
-3.122472 -0.045649 -2.595531
-3.101457 1.254617 -2.157867
-3.489568 -0.157248 -2.884280
-3.328378 0.297661 -1.984233
-3.225079 0.533509 0.161927
-4.118328 -0.834266 -0.329375
-4.195757 -0.255699 0.266358
-3.125779 -0.187285 -0.699927
-3.297273 -0.010825 -2.522574
-3.430202 0.575367 -1.832033
-2.821098 0.557187 -1.237141
-3.522961 0.255655 -1.309444
-2.654774 0.548921 -2.513716
-3.328629 0.137746 -1.964886
-4.301157 -0.299675 -2.827521
-3.970240 0.656846 -1.645712
-3.084374 0.566513 -1.422278
-2.693631 0.545923 -2.857134
-2.602931 0.551595 -2.058374
-3.147154 0.503436 -3.315976
-3.152050 0.559371 -3.252813
-2.905127 0.506138 -2.573553
-3.031859 0.322481 -2.260913
-3.163789 0.334349 -1.510610
-3.041840 0.597739 -1.342604
-3.809784 0.228288 -1.567313
-3.098398 0.465943 -0.898391
-3.574305 -1.062936 -0.458801
-2.712643 1.209508 -1.813065
-3.235218 1.294930 -2.050524
-3.186141 1.296456 -2.059937
-3.377321 1.222296 -1.905174
-2.788604 0.617368 -1.015697
-3.075168 0.695685 -0.866521
-3.043601 1.239573 -1.910178
-3.027884 1.196561 -1.996107
-3.455550 0.009779 -1.180098
-3.167320 0.619165 -4.372668
-3.227446 0.531155 0.165455
-3.230578 1.151583 -2.158834
-2.974825 -0.256099 -2.027015
-3.111298 0.204197 -1.827173
-4.061351 -0.798380 -0.531087
-3.025707 1.215624 -1.827708
-3.319239 1.310942 -1.999774
-2.756078 -0.017790 -2.708554
-2.649693 0.548755 -2.477976
-2.580484 0.548314 -1.914243
-3.048471 1.245044 -1.917369
-3.107659 1.153212 -1.886783
-3.290582 0.266489 -1.579800
-3.327606 0.078568 -1.018705
-3.880033 -0.270475 -0.731581
-3.882454 1.915383 -2.707102
-3.159690 1.272277 -2.040466
-2.959780 -0.232631 -2.002513
-3.508600 0.250309 -1.479143
-4.332057 -0.355938 -1.369545
-4.390146 -0.550812 -1.004491
-4.102228 0.184175 0.114053
-3.155992 1.242100 -2.044920
-3.116711 1.020723 -1.709355
-3.364439 -0.054890 -2.635043
-4.197131 -0.101962 -2.255565
-3.178712 0.442775 0.380424
-2.479252 2.071685 -3.193344
-2.962527 0.549682 -2.733248
-2.984955 0.667632 -0.904035
-3.382807 -1.108913 -0.462279
-2.975271 1.434425 -2.238130
-2.736603 0.990816 -1.817346
-2.888583 0.482635 -1.024132
-3.255408 0.531852 0.216336
-2.695208 0.545083 -2.848773
5.490363 -5.160906 10.026411
-0.468970 0.479384 0.626315
-0.042180 -1.496335 3.146489
1.286627 -1.669679 1.549761
0.968427 -0.139000 0.578919
-0.030465 -0.469399 0.825400
-4.308107 -12.950693 15.582385
4.671682 -2.293764 2.531296
-1.924248 -3.043951 3.084411
-1.439862 -2.298955 2.317150
4.483178 -0.115077 3.084061
5.246578 -1.768599 9.458655
9.281469 -10.671860 22.363909
0.190712 0.474826 0.639109
2.328727 -0.385619 1.917905
5.634737 -0.133200 3.873184
0.189551 0.478531 0.642143
3.255975 -0.011541 1.617583
6.066803 -4.946146 8.508608
-0.494314 0.491528 0.633008
10.999882 -7.789927 17.541197
-0.494679 0.489720 0.632653
0.093493 -1.251156 1.027031
-0.196743 -0.077702 0.401442
-1.516003 -0.605373 0.463185
1.270294 -1.629668 1.595341
10.632240 -6.371037 21.467682
-0.121639 -0.519773 0.927798
-0.110647 -0.530448 0.911575
1.108449 -1.289973 0.881774
-3.793064 0.243789 0.905082
-0.196733 -0.077342 0.401438
-0.327951 -0.462430 0.555027
1.265642 -1.632271 1.605059
8.121201 -6.908854 13.436205
-0.194035 -0.075084 0.401190
0.419717 -0.245806 0.512291
-1.545686 -0.614649 0.465917
-0.454641 0.494587 0.631447
-0.415063 -0.168453 0.549358
1.094740 -1.271676 0.864879
0.721472 -0.310541 0.451778
-0.403059 -0.861964 2.270973
-0.105702 -1.431268 2.999764
4.116862 1.141340 -3.208597
2.476346 0.481097 -3.140389
1.696830 1.702668 -2.790633
0.073390 1.563900 -2.635475
0.306924 1.324543 -1.744246
4.756781 1.782520 -2.833721
3.197483 0.566178 -3.363290
0.458621 1.255509 -1.767320
3.983282 1.191974 -3.154857
2.528923 0.503112 -3.192747
2.750077 0.474460 -3.367845
1.953810 0.239395 -3.479806
4.036242 3.655592 -4.732501
4.667514 1.404393 -3.429132
3.554315 1.623243 -2.648283
4.325449 1.242675 -3.349173
1.802259 0.301763 -3.266489
3.484609 0.550261 -3.527867
0.521960 1.119205 -2.048247
3.042555 1.171357 -2.227469
0.785562 1.305830 -2.347518
0.362207 1.276028 -1.849143
0.160135 1.256244 -2.106868
0.864885 0.909124 -1.885815
4.295706 1.668792 -2.910895
4.067318 1.499907 -3.106557
1.885647 0.716761 -3.432201
1.648227 1.196256 -2.245244
2.074301 1.419942 -2.510308
1.914184 1.284169 -2.371374
0.795047 1.399904 -2.241978
0.638462 1.816834 -2.622946
0.793788 1.332163 -2.231676
3.052300 0.713302 -4.064227
1.375151 1.056882 -2.101512
0.981582 1.360325 -2.435857
0.886027 0.906308 -1.923213
1.034712 1.240476 -2.307331
4.400725 3.357541 -4.565563
1.299940 1.050693 -2.095495
0.727673 1.123528 -2.057176
3.045458 0.566493 -3.267322
4.076280 1.552034 -2.595209
1.367565 1.852446 -2.990821
0.405691 1.250685 -2.300899
2.060054 0.227915 -3.664318
2.161838 0.185460 -3.815243
4.802424 1.810307 -2.855163
4.149758 1.431898 -3.176500
4.647640 1.851362 -2.774253
0.405012 1.446556 -2.104573
4.529297 1.120210 -3.441169
4.291586 1.074656 -3.322243
4.866460 1.615533 -3.494452
4.237099 1.445715 -3.216215
4.010009 1.487419 -3.082827
1.848289 0.727411 -3.364065
1.386331 1.434079 -2.519977
4.196096 1.579627 -2.626391
2.351583 0.500929 -2.989846
1.872267 0.277133 -3.358235
2.545974 0.501660 -3.205295
2.744545 0.474548 -3.364302
2.618004 0.477450 -3.279809
2.670189 0.482803 -3.307186
1.586778 1.852244 -2.931083
1.584539 1.785743 -2.900403
1.306887 1.433303 -2.536761
1.831120 0.290453 -3.306286
4.225471 1.179746 -3.338562
4.784312 0.794541 -3.688400
0.313795 1.448596 -2.008502
0.357483 1.282014 -1.850141
0.294848 1.187533 -2.059314
1.311323 0.985657 -2.016984
1.092706 1.931879 -3.075356
0.425120 1.880806 -3.025702
0.702572 1.242862 -2.306047
0.274692 1.053472 -1.960344
4.142276 0.859033 -2.949271
2.825489 0.600999 -3.104417
0.087128 1.317587 -2.379910
3.838196 0.506646 -3.760696
0.516701 1.978723 -3.083233
0.434609 1.295108 -2.344400
3.325793 0.738574 -4.121631
1.123263 1.403930 -2.489033
3.050481 0.565773 -3.270995
1.903484 0.716542 -3.318261
1.041572 1.252839 -2.321559
4.458625 1.149634 -3.417340
4.488886 1.279388 -3.448211
1.147107 0.177250 -3.275213
0.485338 1.456884 -2.536396
4.067080 0.993201 -3.284520
4.641726 1.956800 -2.997738
1.930999 2.214300 -3.272257
4.508899 1.126159 -3.337876
0.337540 1.378184 -1.775269
3.801321 0.527236 -3.739120
0.351101 1.539830 -2.683285
0.242284 1.521930 -2.363794
4.631535 1.770163 -2.805632
3.131270 0.526714 -3.227628
3.279009 0.481849 -3.374902
2.449259 0.618871 -2.870446
1.760835 0.366239 -3.179790
1.049850 0.338168 -2.881701
1.098380 0.262812 -3.080993
0.397028 1.344379 -1.798545
4.821153 0.861965 -3.200721
4.586531 1.656990 -2.730608
3.862346 0.523911 -3.777181
4.257276 0.492043 -4.036586
3.141164 0.557824 -3.331220
3.806121 0.510676 -3.738145
5.153515 1.497409 -3.643142
1.860716 0.277195 -3.349632
1.883492 0.251711 -3.425574
1.728135 0.327063 -3.152508
4.025890 1.671710 -2.614807
2.245601 0.514592 -2.912654
0.400801 1.300685 -1.794680
4.290673 1.072690 -3.319817
0.409377 1.405437 -1.775342
0.356026 1.365221 -1.785688
2.181826 0.359583 -2.626691
3.358106 0.512300 -3.383214
3.633702 0.721747 -4.502925
4.176002 0.737106 -4.872758
1.546419 1.526771 -2.610305
0.663440 1.167751 -2.206543
-1.627795 2.724183 -3.923883
2.982671 2.002808 -3.121006
1.497211 1.356670 -2.438315
-0.082992 1.317806 -2.140355
3.204651 0.420568 -3.716824
1.444188 1.081151 -2.129965
3.764456 2.279766 -3.473806
1.973226 0.730067 -3.609035
2.585217 0.494550 -3.236536
2.597020 0.479377 -3.264226
0.632321 1.310208 -2.379791
0.300881 2.861003 -4.099913
0.149893 1.963563 -3.082564
0.458898 1.526407 -2.615252
0.487987 1.181130 -2.226810
3.137618 0.558040 -3.241427
1.979856 0.714899 -3.421540
1.612517 1.895929 -2.972502
1.206905 1.188236 -2.241814
5.085405 1.066861 -3.694260
3.919645 1.733985 -2.748980
2.592086 0.509591 -4.375867
1.915433 0.285097 -3.470006
1.086578 0.267842 -3.097175
4.393357 1.370957 -3.259874
1.881256 0.227100 -3.457739
1.899886 0.752068 -3.502119
1.024751 1.554576 -2.411186
1.651139 0.387406 -2.990728
-0.075827 1.643249 -2.719012
0.720648 1.294952 -2.329979
0.309044 1.606508 -2.760985
0.349550 1.292063 -1.852636
0.435879 1.420158 -2.162595
2.724913 0.609422 -3.037957
0.482503 1.326939 -1.959956
1.982167 0.646329 -3.455287
1.923353 0.677083 -3.387324
2.511865 0.636547 -4.226257
2.479513 0.524961 -4.214503
1.898983 1.997636 -3.147212
1.059963 0.311175 -2.972282
0.623161 1.219208 -2.273326
0.416828 1.392534 -1.775511
0.362705 1.363039 -1.806296
4.046282 1.368769 -3.143188
3.307842 0.388796 -3.847729
2.574290 0.472183 -3.244364
2.600050 0.491963 -3.264710
1.827387 0.608859 -3.223438
1.927601 0.605128 -3.327389
0.335244 1.410910 -1.795695
3.791518 1.162351 -3.094716
4.124872 1.312391 -3.255771
4.404910 1.372721 -3.324262
0.398023 1.396545 -1.798976
3.089674 0.823162 -2.627648
3.738594 0.841589 -2.868421
4.526078 0.863143 -3.161490
4.274323 1.192067 -3.326252
4.038145 0.823881 -3.045814
3.055707 0.565989 -3.273649
2.705984 0.516713 -3.269722
1.663224 0.382215 -3.007734
1.619558 1.177746 -2.237355
1.983847 1.344578 -2.425516
1.146158 3.909611 -5.261317
0.836707 0.877898 -1.903151
0.256351 1.470474 -2.540815
1.867578 0.317594 -3.420845
2.408576 0.695652 -4.215916
4.772466 1.251874 -3.442101
5.136627 1.588558 -3.371160
4.210076 1.129351 -3.302676
1.584831 1.857571 -2.933704
1.018879 1.470784 -2.546401
0.585045 1.217579 -2.270082
3.799088 1.801147 -2.859401
2.089494 0.710957 -3.582721
4.738263 1.100365 -3.420962
4.443317 1.609490 -2.807709
2.612071 0.477665 -3.158838
3.171008 0.566677 -3.359828
3.372995 0.511599 -3.557728
2.304952 0.514495 -2.958163
2.103845 0.225952 -3.751014
1.943614 0.286777 -3.466990
2.123055 0.197169 -3.787585
3.283898 -0.274870 -5.503605
1.013552 0.391547 -2.730242
1.100874 0.252311 -3.092820
1.074060 0.344864 -2.848223
4.008719 0.850506 -2.916891
4.556378 0.833009 -3.110239
4.486940 1.385689 -3.296689
4.631740 1.097373 -3.475087
4.632483 1.523852 -3.316338
1.901118 0.628964 -3.330640
1.863241 0.270208 -3.364134
3.501274 0.719401 -4.382071
2.732499 1.604830 -2.747723
1.528712 1.139626 -2.201551
1.686449 1.659197 -2.763842
3.701200 0.508721 -3.610417
0.656363 1.193071 -2.231570
0.569018 1.661458 -2.772272
0.087143 -0.171981 -4.199476
0.330681 1.315651 -1.855999
0.325493 1.352059 -2.047652
0.401725 1.414301 -2.043952
0.032419 1.241990 -2.090127
2.165417 0.358084 -2.599239
2.621694 0.617764 -2.970123
4.913931 1.082844 -3.641067
3.277913 0.482262 -3.373815
4.566320 1.819586 -2.786276
-0.381051 -0.898980 2.168731
-0.363790 -0.054269 0.708129
-0.511674 -1.257111 1.738376
-0.360984 -0.062469 0.699917
-0.294149 -0.349198 2.529488
-0.302193 -0.339673 0.544356
-0.451364 -0.026051 0.673183
-0.361279 -1.045081 2.664332
0.820621 -2.063279 1.715315
-0.341313 -0.231666 0.613040
-0.446228 0.235470 0.757549
-0.433944 -0.946754 2.301312
-0.411593 -0.084999 0.578313
-0.223187 -1.224673 1.732254
0.171767 -1.436751 2.187913
-0.447710 0.269037 0.713393
-0.406684 -0.915773 2.220243
0.004429 -0.805172 0.766857
0.735685 -1.632683 1.408220
2.031950 -0.078700 1.000619
2.289078 -2.429870 9.559017
0.551749 0.290180 0.754345
3.134920 0.458436 -1.469167
3.227411 0.599216 -1.968540
3.373652 0.569063 -1.976373
2.302779 0.831185 -0.454687
4.362763 0.469794 -1.067079
2.555962 0.952943 -0.729405
4.925548 0.172464 -1.494098
4.271029 -0.219246 -0.475633
3.129973 -0.009817 -1.070230
2.428516 0.897047 -0.602111
3.012266 0.643912 -1.325137
3.062375 0.052529 -1.014403
3.433219 0.404207 0.163216
2.428327 0.896903 -0.601931
3.536913 0.319392 -2.435703
2.650663 1.093023 -0.987771
5.131856 0.047357 -1.064226
2.575816 1.036546 -0.863073
2.569341 0.883897 -0.577405
2.529840 0.861098 -0.564870
3.347482 0.400465 -1.960003
2.469205 0.483348 -0.279422
3.588506 0.528468 -2.580668
3.473057 0.360266 -2.073432
3.046910 0.093343 -0.603358
2.523392 0.899872 -0.593435
3.092307 0.046224 -1.008150
2.777617 0.471847 -0.828745
2.906436 0.555232 -0.040853
3.211679 0.346110 -0.179000
4.470475 0.634112 -1.080664
2.451030 0.383373 0.268585
4.702995 0.726198 -0.892950
2.421070 0.837644 -0.005702
3.518747 0.541837 -2.468861
3.385289 0.403744 -1.821144
3.428198 0.360458 -2.208399
2.463902 0.943568 -0.686026
4.365642 0.301709 -1.261583
5.491922 -0.056364 -1.357394
2.574826 0.885300 -0.581727
2.527988 0.860537 -0.563916
2.795296 0.653021 0.001636
4.542956 -0.175173 -0.063086
2.887807 0.546489 0.061870
3.126369 0.017074 -1.032524
2.350390 0.588226 -0.053965
2.346159 0.614328 -0.098918
2.359251 0.587966 -0.064511
4.573703 0.726166 -0.949704
4.222101 0.567747 -1.063365
4.311724 0.547566 -1.022044
4.579009 0.450209 -1.139789
2.464446 0.714507 -0.270770
3.593261 0.298673 0.208664
4.110253 0.490346 -1.107017
2.435920 0.678847 -0.156594
4.241211 0.278486 -0.867716
4.257008 0.323936 -1.216300
2.667412 1.055603 -0.929461
3.347016 0.405654 -1.901180
2.522219 0.690990 -0.753348
3.206022 0.212490 -1.267350
2.423477 0.852238 -0.500615
2.423809 0.842195 -0.506448
2.516542 0.693126 -0.746569
4.437482 0.224248 -1.044409
3.046463 0.084623 -0.974960
3.086320 0.506613 -1.204205
4.625161 -0.397542 -0.497498
2.342172 0.734051 -0.288268
3.358593 0.277889 -0.147005
2.466101 0.944646 -0.688676
2.760989 0.236435 -0.631392
3.270715 -0.330552 -0.106713
2.422604 0.838111 -0.002970
3.178595 0.182436 -0.258418
3.994753 0.495798 -1.034434
4.020950 0.424657 -1.011734
3.542227 0.316300 0.184777
2.696535 -0.366455 0.422799
2.513069 0.694346 -0.742392
2.509796 0.693464 -0.765521
3.210681 0.444901 -1.825190
3.064926 -0.067128 -0.121093
2.575154 0.669514 -0.850045
3.425787 -0.238973 -1.246434
2.801763 0.192135 -0.726284
4.512500 0.035470 -0.386327
3.239706 0.192758 -1.297459
2.320740 0.635036 -0.126989
4.571866 0.694557 -1.102641
3.025926 0.518081 -1.470829
3.572902 0.305465 -2.475698
4.221048 0.328285 -1.200133
2.521248 1.019078 -0.840494
2.304393 0.665770 -0.174018
4.785845 0.632837 -1.059839
4.712630 0.515779 -0.935692
5.281824 0.299807 -1.398314
2.778632 0.229052 -0.774121
3.429154 0.226221 0.186707
2.437862 0.840324 0.026545
3.260294 -0.278752 -0.060643
3.641658 -0.427563 -1.398052
2.475997 0.956319 -0.704244
3.485455 -0.070043 -0.922368
4.573870 0.769333 -0.872776
3.393660 -0.212923 -1.222795
-0.419512 0.080769 0.700091
-0.443031 0.301571 0.775450
-0.043549 -0.757783 0.593596
-0.067707 -0.542156 3.155532
-0.332476 -0.511929 0.628425
0.649398 -1.333314 1.232133
-0.367032 -0.234942 0.658912
1.292246 -0.543630 0.624566
-0.733849 -0.636278 0.437523
0.650467 -1.395920 2.088830
0.038047 -0.392688 2.361022
-0.382836 -0.046967 0.714497
0.458184 -0.819916 0.765346
-0.418910 0.012740 0.664190
2.089044 -0.062523 0.862149
-0.303401 -0.678760 0.570243
0.599986 -1.175967 1.781372
-1.684418 -0.603605 0.665694
0.475023 0.340729 0.718860
-0.429616 0.011248 0.668057
-0.367793 -0.386888 0.596302
0.167659 -1.441514 2.182029
1.257312 -1.279981 1.022043
-0.391091 -0.225359 0.610799
-0.453210 0.010905 0.677791
2.148790 -0.022844 1.024956
-1.671086 -0.595908 0.662884
0.828375 -0.047679 0.391492
-0.315121 0.128269 0.738891
0.741422 -1.486724 1.181012
-0.094147 -0.842792 0.626645
-0.342258 0.008539 1.354814
0.258952 -0.820673 0.769462
-0.331165 -0.474640 1.238313
1.129396 -1.413710 1.112649
-0.437117 -0.061508 0.653525
0.215392 -0.715107 0.573526
-0.065617 -1.703962 2.490382
2.412899 0.041693 0.984561
0.627897 -1.179983 0.731603
-0.384857 0.205024 0.814012
0.628811 -1.394688 0.870451
0.255915 -0.811832 0.764999
-1.557048 -0.616818 0.468166
-0.361280 -0.383769 0.592196
-0.327599 -1.232473 2.138970
1.778332 -0.016159 0.862547
-0.312102 -0.483018 0.532243
0.426690 -0.686995 0.480137
-0.040906 -0.791116 0.749277
0.676024 -1.307094 0.875919
0.420402 -0.659892 0.530224
0.538593 -1.313946 1.593762
0.616630 -1.323040 1.426525
0.318813 -0.094384 0.243366
2.937104 -0.039486 -0.845767
5.436027 -0.029411 -1.138338
3.010655 0.644444 -1.323295
3.562666 0.318213 -1.786678
-0.278904 -0.914800 1.011858
-0.403503 -0.103701 0.625740
-0.459401 -1.173696 1.783452
1.291756 -1.327518 1.051980
0.082106 -0.945267 1.176255
-0.424655 0.013610 0.669513
0.490369 0.427873 0.783565
1.555547 -0.186175 1.031520
2.200546 -5.196383 10.314666
1.878810 -0.366273 1.851319
2.005905 -1.244677 0.825995
11.418058 -6.279785 12.575535
0.738203 0.268314 1.341188
11.385264 -6.289638 12.646755
-1.858378 -0.589923 0.764280
-0.485150 -0.135927 0.307210
6.155180 -1.747418 10.036778
7.010605 -5.976081 11.666178
0.420620 0.367431 0.796775
2.679933 -0.227352 1.062661
8.552427 -8.927456 17.238113
2.547577 -0.208834 1.012204
5.651414 -5.463838 9.644173
-0.390609 -0.535403 2.465320
0.406989 -0.037743 0.228910
0.456105 -0.034193 0.250089
5.943350 -1.931397 10.299328
4.384039 -3.884734 6.880107
-3.163232 0.551911 -1.990563
-3.648609 0.516419 -1.441547
-3.501671 0.536336 -1.465315
-3.222756 0.352697 -1.278988
-3.058166 0.452494 -1.200259
-2.951366 0.422882 -1.182161
-4.316588 -0.432437 -0.668737
-3.121779 0.526655 -1.598339
-2.705898 0.553655 -2.104298
-2.695424 0.563512 -2.552666
-3.111910 0.194400 -2.396245
-3.005286 0.620783 -1.954220
-3.211221 1.105461 -1.818640
-3.199987 0.464259 -0.803100
-3.321806 1.161667 -1.862368
-3.380691 1.123416 -1.760751
-3.385236 1.028593 -1.702344
-3.579809 -0.010544 -2.205822
-3.791430 0.827438 -1.605201
-2.810437 0.533553 -1.187403
-3.029210 1.153538 -1.863549
-3.157614 1.339535 -2.142685
-3.023155 1.122459 -1.948899
-4.277387 0.154489 0.253829
-3.650172 0.294353 -1.255828
-4.301429 -0.373488 -0.529159
-3.212579 -0.396014 -1.172430
-3.255548 -0.077231 0.207611
-2.704446 0.567952 -2.671489
-3.004822 0.211307 -2.174629
-4.090500 -0.037229 -2.093917
-2.994752 0.572109 -1.277865
-3.310045 0.022448 -0.262274
-3.685659 0.509895 -2.080781
-2.984801 0.506141 -2.720636
-3.212963 0.084116 -2.315196
-3.280658 -0.415870 -1.302720
-3.836040 0.568117 -1.690553
-3.852860 0.181375 -1.851844
-2.696374 0.564251 -2.565661
-2.704201 0.567252 -2.667217
-2.690866 0.559979 -2.490380
-3.016047 1.134506 -1.846808
-3.625778 0.172986 -1.711128
-3.520886 0.037916 -1.119470
-3.652612 -0.319805 0.175242
-4.633475 -0.682739 -0.546486
-2.739914 0.569807 -2.604755
-3.024475 0.147113 -2.216662
-2.976045 1.094107 -1.738046
-2.947159 0.775419 -1.425366
-2.895753 0.763909 -1.418448
-3.983746 -0.298936 -1.026648
-4.201975 0.246692 0.159434
-3.967647 -0.142821 -0.128435
-4.008774 -0.293135 -0.083692
-2.684562 0.557681 -2.408781
-4.173178 0.055910 -0.366529
-3.029025 1.158136 -1.915040
-3.122141 0.354252 -1.423678
-3.287876 1.130237 -1.776749
-3.377230 -0.023834 -0.183289
-2.986116 0.507189 -2.724291
4.186130 1.238014 -3.307654
2.679120 0.464004 -3.324513
1.973796 0.600086 -3.388426
2.167876 0.560394 -3.693779
1.879978 0.628908 -3.309351
1.107071 0.254697 -3.233742
4.341433 1.114489 -3.381223
4.837538 1.565237 -3.396937
4.114233 1.372275 -3.143898
1.862983 0.314079 -3.423074
1.839002 0.330889 -3.357550
2.092671 0.227907 -3.735160
1.668579 0.232429 -3.403672
1.074764 0.291640 -3.033992
0.077421 -0.000384 -3.492122
-0.181589 -0.208385 -3.984633
0.040817 -0.037975 -3.576442
4.568609 1.726477 -2.772304
2.009515 0.245670 -3.518290
1.545639 0.027033 -3.784675
0.423312 1.409830 -2.530344
0.426245 1.378452 -1.623531
0.494745 1.257641 -1.652358
0.098628 -0.156125 -4.157478
0.199844 1.137403 -2.018085
1.470518 1.090646 -2.147051
1.959274 1.333162 -2.411728
3.092813 0.703122 -5.283402
1.617700 0.210039 -3.604018
1.741258 1.822234 -2.954783
0.611350 1.253014 -2.309384
-0.035924 1.534707 -2.615955
5.437512 0.897993 -3.398490
3.316578 0.831902 -2.709233
4.057022 0.751802 -3.216604
3.117238 0.572908 -3.282193
2.506680 0.608625 -2.900624
3.966785 0.496290 -3.842236
4.613611 1.189736 -3.557300
1.539151 0.104630 -3.618248
0.237537 1.496315 -2.569988
4.725222 1.672436 -2.889949
4.712294 1.783885 -2.882131
3.853402 0.479812 -3.879526
2.564047 0.473281 -3.217065
2.135629 0.540466 -2.820908
2.444217 0.480563 -3.068722
0.326234 1.409873 -1.772386
0.413319 1.296088 -1.793334
-0.221689 -0.243576 -4.063128
3.723422 0.303881 -4.044483
2.205554 0.168605 -3.898711
1.933014 -0.136311 -4.731324
4.562076 1.026287 -3.459925
1.726943 0.326742 -3.153074
2.028561 0.643004 -3.519725
1.908785 0.631567 -3.290186
1.292565 0.035860 -3.940270
