10.025926 0.983961 -2.530956
7.489080 0.590859 -2.989853
5.949905 0.556121 -2.689661
7.046551 1.924999 -2.039070
0.797872 2.143676 -2.849208
0.876042 2.033957 -2.444725
6.748855 0.310973 -2.474319
8.186555 -1.043829 -5.486735
1.493960 1.748884 -2.198045
6.029254 0.542152 -2.742835
5.465548 0.330432 -2.477681
0.684969 2.113115 -2.514669
6.056917 0.681238 -2.961329
-0.055025 2.022285 -2.367548
-0.292954 2.242282 -2.565663
-0.263187 2.259792 -2.605497
-2.067344 1.222953 -3.033606
-1.562858 1.231892 -3.351213
-3.961276 -1.548682 -1.160699
-2.281457 0.121493 -0.299273
-3.060360 1.578254 -3.297145
-5.820590 1.340988 -4.248592
-2.346761 -0.949972 -0.795938
-2.804645 1.898148 -3.046206
-3.057616 1.973628 -3.205590
-2.066563 1.063485 -3.130991
-2.360200 1.003542 -3.329713
-0.934520 2.019208 -2.433748
0.715272 4.264949 -5.278975
0.776757 4.271217 -5.306684
1.870542 10.053106 -8.966885
0.211125 0.354542 -2.934108
-1.067190 2.139335 -2.551057
0.433912 1.255540 -1.825437
-2.155213 0.383026 -3.492014
-1.972551 1.167920 -3.519466
-1.579152 0.164166 -0.386262
-3.967085 -1.286147 -2.509994
-0.233026 1.915083 -2.223628
-0.256449 1.981822 -2.349967
-0.249663 1.882774 -2.274328
-2.815365 -1.050569 -1.216098
-1.703203 -0.282853 -0.787602
-1.343960 -0.096405 -0.845727
-2.786963 -1.217942 -0.709389
-1.558744 -0.554997 -0.946792
-2.195910 1.156524 -3.239632
-2.819551 1.057421 -3.691211
-4.600134 2.371165 -3.606884
-2.508032 1.892302 -2.869050
-3.292947 1.891494 -3.097453
-1.861580 0.101182 -0.341668
-3.040838 -0.899083 -0.865677
-2.440587 0.115777 -3.710664
-4.340444 -0.799146 -3.588360
0.450781 0.739763 -2.684231
-2.121281 0.299180 -3.427834
-2.091467 0.393134 -3.436043
-2.171642 -0.964774 -0.808882
-1.983792 1.174865 -3.529403
-2.184019 1.212913 -3.721100
-1.683646 0.135856 -0.349634
-0.956659 2.034828 -2.452472
-0.047218 1.837524 -2.208924
-2.637727 1.934340 -3.063052
-3.159081 -0.782617 -0.972488
-2.720904 -1.000398 -1.214757
-1.273933 -0.045617 -0.195135
-0.833220 1.076694 -3.039142
-2.649406 -0.721027 -0.893123
-0.578189 0.774783 -6.558140
0.189156 0.734813 -2.760020
0.206544 0.542092 -2.841445
0.172136 0.873370 -2.709077
0.207345 0.347793 -2.951273
-0.119659 1.927616 -2.254208
-1.352344 0.116368 -3.347694
-1.815652 1.086197 -3.294194
-0.376997 1.902814 -2.360125
-2.988133 0.787184 -3.542809
-2.279196 0.375915 -3.609933
-2.113175 -0.930167 -0.823132
-1.564992 0.165383 -0.392926
-1.255917 0.038804 -0.139358
-2.708191 -0.789007 -1.313069
-2.433731 -0.048929 -3.772813
0.202014 0.428891 -2.919187
-0.934797 2.019742 -2.444816
-1.407791 -0.114181 -0.147864
-1.212029 -0.647959 -0.593461
-1.631009 1.015707 -3.002129
-3.395489 -1.342482 -1.264503
-2.010513 -0.539901 -0.974484
-2.750214 -1.149751 -0.796669
-3.517338 -0.140629 -4.220950
1.896626 10.596274 -9.367605
0.593383 2.063488 -2.708143
0.177959 0.803409 -2.756628
-1.354144 0.331897 -0.060215
-1.114472 -0.525395 -0.481588
-0.537113 1.002105 -6.185441
-0.820619 3.618134 -5.420009
0.182464 1.971997 -2.354375
-3.663638 -0.574244 -3.275670
-0.086030 1.861017 -2.199030
0.070116 1.907787 -2.277969
0.158690 1.867012 -2.274330
-1.551049 1.095906 -3.180961
-1.785699 -0.734947 -0.864635
-2.383268 -0.040561 -3.717928
0.768353 3.601528 -4.464164
-0.604631 0.770204 -6.684011
0.213566 0.358835 -2.922911
-0.657084 1.774076 -2.190446
-0.916520 2.002548 -2.424264
0.228973 -0.122390 -4.144840
-2.498199 -0.067750 -3.821515
-2.044966 -0.629497 -1.243762
-3.532028 1.677459 -3.407837
-2.104961 -0.784280 -0.877193
2.013351 11.037924 -9.795350
1.622055 10.867751 -12.860340
0.387983 1.597337 -2.320748
0.177368 0.802689 -2.758857
-0.724736 0.939158 -2.900784
-2.285055 -0.124749 -3.973246
0.226469 -0.130019 -4.165911
0.113748 1.913386 -2.261054
-0.247197 1.903851 -2.239125
-3.386153 0.585705 -3.923787
-1.263259 1.204501 -3.024052
-1.164285 0.030193 -0.175029
-1.651388 -0.273471 -0.815361
-1.850400 0.267380 -3.379154
0.745166 4.716788 -5.781743
-0.643892 1.760071 -2.177125
-0.945185 2.030366 -2.447894
1.594423 8.143126 -7.368081
-3.445271 -0.463795 -5.617502
0.718872 4.238152 -5.258196
-1.377126 1.233756 -3.145380
-5.534793 1.250431 -4.602714
-0.190619 1.899772 -2.381395
-1.873541 -0.639034 -1.230229
-2.093418 -0.266155 -1.781476
-2.067235 -0.531729 -1.263187
-0.878513 0.957579 -2.998956
0.212455 0.355825 -2.925649
-1.351840 -0.817528 -0.581941
-2.939547 -0.254397 -3.492447
-4.194499 1.909811 -3.743955
-2.835004 -0.636238 -0.594221
-0.948167 0.962925 -3.092396
-2.489009 0.763509 -3.384138
-3.216924 0.596794 -3.788175
-2.355559 -0.406438 -1.736704
-2.238869 0.118096 -0.321526
-1.753468 -0.314144 -1.530669
-4.349572 1.482829 -4.054321
5.363091 -1.602496 1.927761
2.246195 -0.643443 2.759263
5.717323 -0.114247 2.156310
5.095710 -3.131391 5.910901
6.557607 -0.014789 2.453018
1.334388 0.234370 1.017483
3.148848 -0.281735 0.755711
2.967952 -0.929286 1.047896
4.636092 -3.948211 7.278961
5.204630 -3.311138 6.209095
1.274139 0.226194 1.034559
3.958359 -1.565092 1.528259
5.378142 -0.662604 3.397870
6.083822 -3.783947 6.730459
5.567776 -0.556219 1.668868
14.343528 5.126931 -7.620204
6.074450 -3.741520 6.664504
6.681472 -1.221775 3.838728
15.384061 5.659309 -8.558092
14.487695 5.150066 -7.324752
6.069006 -3.717279 6.627861
17.219118 6.361767 -9.401821
7.450375 -3.729771 7.058542
8.090842 -3.995465 3.918298
3.660052 2.033876 -2.364533
2.456670 2.004240 -0.925404
4.244843 1.927317 -2.232489
5.639095 2.498909 -2.103961
2.959661 1.866069 -2.365363
5.522588 1.869926 -1.818649
4.794240 1.854260 -2.137307
4.574594 1.782395 -2.141135
4.394587 1.816817 -1.802322
4.379638 1.846960 -1.893104
4.446836 1.773935 -1.841239
3.527953 1.710844 -2.153407
5.776302 1.966713 -2.088816
5.402460 2.033076 -2.295246
3.065079 1.842788 -2.324797
6.310606 1.798330 -1.957991
5.155288 1.921169 -2.205487
3.811756 2.068856 -2.416580
4.956457 2.022236 -2.240952
4.150290 2.104644 -2.426552
3.451674 1.816327 -1.875850
4.622744 1.826383 -2.168048
4.369113 1.834807 -1.888508
4.404487 1.733277 -1.825950
5.407079 2.034552 -2.298388
4.380691 2.181579 -2.455995
2.507194 2.451555 -0.544817
4.375211 2.173225 -2.449712
1.203457 1.973324 -2.601462
1.521273 1.847222 -2.483104
5.279716 1.997405 -2.260320
2.313565 1.809550 -2.034632
4.745241 1.744007 -2.102053
3.005438 1.903697 -2.395354
4.200972 1.905468 -2.250829
5.430826 1.976447 -2.209642
1.371425 1.890942 -2.549030
1.506372 1.853876 -2.491273
7.309206 1.955141 -2.074171
6.373173 2.034409 -2.137313
1.378470 1.846003 -2.451825
6.246755 1.750203 -1.947024
1.845351 1.660424 -2.208444
1.151240 0.915653 -3.614668
5.735783 2.133715 -2.335782
-5.064346 -0.899537 -0.867675
-0.980852 0.596669 -0.762105
-0.737751 1.009400 -2.884782
-1.449565 1.215552 -3.078925
-1.502045 1.227824 -3.217715
-1.380669 1.136924 -3.050647
-7.908498 2.863318 -4.470928
-3.614248 1.975550 -3.030664
-3.550607 1.604142 -3.454473
-0.741863 0.675817 -0.797105
-1.038603 1.145803 -3.010992
-3.427366 -0.113070 -4.154909
-3.708213 -0.193718 -4.377648
0.145172 1.544632 -2.395716
-4.537519 1.399825 -3.504501
-2.349453 0.164578 -0.291339
-3.979660 1.731497 -3.589946
-7.489807 0.060141 2.329607
-0.907107 1.294462 -2.876103
-0.830520 0.970170 -2.923404
-3.464275 -1.061186 -0.555404
-0.468241 0.699011 -0.879504
-0.776239 0.636774 -0.613582
-0.368297 0.695151 -0.911013
-4.549878 -1.965405 -0.549903
-2.041255 0.119102 -0.355378
-3.116200 1.395708 -3.211937
-3.829921 -0.228763 -4.474233
-4.568251 -1.357417 -0.964167
-1.281783 -0.032011 -0.197472
-3.278414 -0.089417 -4.029788
-10.419143 3.777182 -5.926346
-2.707691 0.457701 -0.096146
-4.191423 -0.784713 -6.660574
-4.105048 1.835115 -2.442229
-4.300046 -0.497090 -1.959737
-3.398404 0.911914 -3.695683
-2.071864 0.193399 -0.313326
-0.896829 1.286145 -2.859293
-0.889488 0.620100 -0.735650
-3.503884 -1.075889 -0.549472
-0.842869 0.967651 -2.943054
0.147208 1.507715 -2.405385
-2.382483 0.098761 -3.411683
-3.181934 -0.010449 -4.267282
-2.457293 1.148422 -3.541933
-2.609621 -0.402928 -0.759877
-2.235632 0.188215 -0.327207
-4.331959 -0.826486 -6.837005
-3.135186 -1.311281 -0.781580
-4.426861 -0.527372 -1.986225
-4.063716 -1.858895 -0.673630
-2.563702 0.084072 -0.145592
5.212802 -5.816022 11.270994
3.952937 -1.433687 1.357818
7.130666 -3.681513 7.043992
6.374817 -0.753555 4.278860
-0.928332 0.625473 -0.716166
-1.529934 1.081288 -3.100178
-3.880459 -0.899281 -0.617798
-0.857735 0.969127 -2.966739
-3.127051 1.088429 -3.479979
-2.442677 1.033504 -3.470020
-2.348711 0.990614 -3.392893
-1.533632 0.118235 -3.175321
-3.353347 -1.277134 -1.275232
-3.709297 -1.179350 -0.829219
-2.563701 0.084073 -0.145592
-2.481961 0.312137 -3.812462
-3.873986 -1.224625 -1.054104
-1.558178 0.547915 0.123677
-3.726717 0.415765 0.755980
-4.139436 -1.090941 -1.083392
-3.598812 -1.745711 -0.643527
-1.197566 0.102922 -0.175618
-1.988662 0.344873 -3.351915
-2.201779 0.301012 -3.661480
-2.405589 -0.908025 -0.753898
-2.474523 1.792313 -2.788192
-2.180385 -0.853759 -0.848208
-1.374039 -0.075607 -0.151443
-2.497849 -0.126745 -3.988167
-4.675533 0.162539 -2.521543
-3.895568 -0.931241 -0.630337
-1.661284 -0.117002 -0.791572
-1.983739 -0.730998 -0.880820
-2.009450 0.206975 -0.383900
-2.376768 -1.136244 -0.696107
-2.218986 -1.104859 -0.710702
-5.730220 -0.683586 0.780616
-1.235672 0.524714 -0.046174
-2.843468 -0.750939 -0.611564
-3.380437 -1.055289 -0.590957
-2.730935 -1.430696 -0.645984
7.073672 -3.233869 7.903417
3.989327 -1.483593 1.355546
4.727344 -2.821193 4.933553
6.049232 -2.049091 6.070265
6.237266 -0.802076 3.586845
6.863865 -3.471933 6.632987
1.293805 -0.507708 0.762330
2.141979 0.301611 1.114136
20.211914 -3.870309 2.549196
6.193413 -3.508564 6.262030
6.558610 -3.617356 6.346441
6.414421 -3.610343 6.466871
6.884970 -1.653850 4.689728
14.299189 -3.209271 2.249053
6.450024 -3.652446 6.473253
7.107180 -2.522213 5.792716
13.942285 4.354237 -6.100606
14.839210 -7.601879 -4.369109
18.109205 -3.201505 2.238828
15.147394 4.734918 -6.807706
11.708743 3.512152 -4.624619
12.230607 3.983143 -5.333233
7.120817 -2.857606 1.819639
6.306915 -3.520853 6.173037
7.180819 -1.396896 4.099509
6.936607 -1.873779 4.747684
8.066797 -2.802632 4.150153
6.309514 -1.611062 1.276240
6.333681 2.218381 -2.388356
6.045153 2.232654 -2.365603
5.825971 2.141693 -2.371116
5.709250 2.079773 -2.338070
1.453732 2.093173 -2.731035
9.702418 2.236434 -1.984268
5.563492 2.278794 -2.510165
2.268620 2.025774 -0.981638
5.875975 2.334577 -2.459808
5.624783 2.059007 -2.326824
5.563347 2.277860 -2.510757
2.269401 2.025005 -0.982059
5.881840 2.190314 -2.407832
5.713717 2.082001 -2.339459
6.551239 2.090195 -2.239295
2.702959 1.970911 -2.106294
1.448319 2.095235 -2.738193
2.201979 2.316489 -0.781230
7.798822 2.349777 -2.271718
5.527722 2.503273 -2.667629
3.797947 2.160388 -2.493882
4.153118 2.137065 -2.469218
2.275931 2.021966 -0.983588
2.951784 1.945244 -1.982786
2.175251 1.959324 -2.142501
6.015356 2.154001 -2.347495
5.293151 1.941033 -2.186776
3.806038 2.182967 -2.508880
3.990217 2.060293 -2.520256
2.590752 1.963871 -2.099345
6.007825 2.150465 -2.345393
1.174346 1.922744 -2.525246
2.894386 2.156157 -2.677234
6.242741 0.641620 -3.056224
3.990747 2.064257 -2.541357
4.370900 2.025690 -2.392622
-10.950122 -0.786360 -4.321390
-1.171227 0.586701 -0.720789
-4.244583 -1.193558 -1.021281
-1.834584 0.148119 -0.313245
-1.448344 0.868959 -3.026485
-7.593305 -0.064994 -3.901584
-8.495081 -0.668835 -4.667052
-1.309102 1.251337 -2.964181
-2.141760 1.063988 -3.185028
-3.051091 -0.010220 -3.937027
-1.578145 1.005623 -2.407653
-1.372556 1.220505 -3.049997
-1.743783 1.177508 -2.855296
-3.720620 1.324972 -3.470901
-2.098605 1.053698 -3.144462
-1.345337 1.264961 -3.003117
-2.112637 0.394669 -3.464391
-5.852985 -1.267550 -0.947035
-2.648616 -0.591508 -0.806814
-1.769848 0.237800 -0.490383
3.124845 -2.868308 7.124246
3.427729 -1.955982 2.143916
0.733447 -2.198610 1.489215
1.602873 -0.767439 1.201528
6.111868 -3.529927 6.630769
5.037087 -4.061402 7.517549
3.263240 -4.730543 2.394971
3.066195 -0.819234 1.092066
8.550718 -1.783946 6.885234
4.899039 -3.815050 7.066698
1.621236 -0.765971 1.186037
6.391580 -3.474590 6.106622
23.516571 8.196806 -13.450257
27.384241 6.002105 -11.056484
26.172430 11.194909 -18.278118
6.130220 -3.079811 5.688901
17.569040 7.120670 -11.072273
19.709850 8.070262 -12.920901
5.650208 0.138255 0.795072
4.773255 2.136833 -2.445227
4.315609 2.095125 -2.410154
3.460052 2.143157 -2.534276
2.550919 1.906492 -2.453156
1.688198 1.835821 -2.026137
6.903553 2.220742 -2.259553
4.439944 1.808635 -2.184826
3.520062 2.113270 -2.508969
4.259604 2.042051 -2.378402
3.977150 2.072939 -2.517120
3.759477 1.922529 -1.996357
2.526467 1.959812 -2.110794
6.193707 0.653091 -3.016544
3.802823 2.109354 -2.497297
3.442518 1.867535 -2.344435
5.665389 2.052578 -2.285893
7.269648 -0.493539 2.381716
7.029674 -1.240445 4.912615
4.950373 -1.305828 1.306479
6.989535 -0.562391 3.184895
8.394469 -1.633683 4.720859
6.009528 -0.469118 3.212302
8.481043 -6.355757 11.470379
7.789052 -3.103437 7.327555
17.668175 5.751630 -9.108570
6.929718 -4.857507 8.244303
6.886376 -4.781412 8.129970
1.120892 1.801753 -2.180798
1.391996 1.774027 -2.175722
6.982444 -0.754114 4.461787
-4.548252 1.784298 -2.898089
-4.448310 -1.253490 -1.113281
-4.084936 -1.078428 -7.181316
-4.256678 -1.169132 -7.564286
-5.019644 0.538326 0.871068
-14.469284 0.346518 4.965580
-11.274616 0.094240 3.083743
-6.773009 2.461565 -3.420225
-4.663039 -1.398597 -8.462888
-6.557646 1.828358 -2.982955
-8.336269 0.442048 2.692643
-4.658774 1.549651 -2.365410
-5.057357 -1.251926 -0.717829
-3.977935 -1.878990 -0.521435
-5.161832 0.560758 2.121085
-2.701151 -0.137174 0.012241
-4.196436 -1.796840 -0.560902
-7.323807 -0.461702 -1.444293
-8.966005 -1.602551 -1.275648
-15.583296 4.968267 -6.724989
-17.193659 -1.856102 -6.452785
1.979631 -0.398826 0.889561
6.820883 -2.773300 8.363089
2.504510 -0.117266 0.935309
1.449892 -0.503447 0.635974
1.463205 -0.546842 0.577039
1.866015 -0.635460 0.784339
8.533504 -2.008414 2.408480
1.471868 1.819082 -2.337553
1.425519 1.813368 -2.206792
5.920115 2.104577 -2.303972
1.462400 1.839479 -2.320876
1.216364 1.865586 -2.227914
1.420747 1.817472 -2.209110
7.182320 -1.016613 4.485441
7.599329 -2.418388 6.292599
7.728738 -2.405743 6.205417
6.597275 -3.791112 6.670419
6.677262 -3.920370 6.805172
7.796311 -2.469388 6.327139
7.547030 -3.440556 7.928776
7.893160 -1.154912 2.675298
7.156164 -1.612141 1.198629
7.872722 -1.930257 1.849012
8.270775 -5.454518 11.584336
8.348957 -5.817374 11.525146
16.331577 3.540509 -5.793108
28.269028 6.393102 -11.548765
16.737743 5.463308 -8.545362
3.698409 2.353394 -2.661893
-7.901050 1.902326 -3.142624
-2.903623 -0.001170 -0.120498
-4.216595 -1.199890 -7.702885
-4.120812 -1.172448 -0.874699
-11.289328 0.246485 3.251191
-4.361477 -0.075560 -3.636495
-5.468952 -1.414183 -0.737296
-3.333682 -0.254010 0.132326
-4.013552 0.023626 -3.364244
7.891383 -1.269283 4.111494
7.109543 -0.335240 3.052882
7.759192 -0.714372 4.544837
7.452132 1.948758 -2.071699
6.677336 0.591765 -2.895596
1.055288 2.018775 -2.712639
1.993286 0.941773 -3.162199
8.052557 2.099374 -2.144887
6.082301 0.666361 -2.993304
1.317120 1.843414 -2.466517
6.718740 0.589975 -2.894957
8.121867 2.117314 -2.152756
4.390466 2.207374 -2.556158
7.399714 1.935268 -2.065664
1.781918 0.897539 -3.084506
6.072169 0.642664 -2.944613
3.965737 2.005113 -2.489060
2.476745 0.031563 1.802448
4.029321 -2.030762 2.288027
5.657049 -1.774434 2.091211
2.561572 -0.990552 1.364263
3.481901 0.433226 1.126622
2.473706 0.029852 1.811761
2.344777 -0.543764 3.231964
3.384340 0.376588 1.243288
4.079288 -2.154286 2.387267
4.783202 1.898556 -2.283334
1.082955 2.004227 -2.700718
4.335950 1.793054 -1.906178
4.245901 2.222599 -2.565260
4.312243 2.066725 -2.428302
1.291510 1.865558 -2.474770
7.745332 2.011829 -2.130100
3.986307 2.067961 -2.463579
4.117314 2.132558 -2.513792
6.042035 0.590274 -2.825285
5.265133 2.238415 -2.496881
1.015290 2.036682 -2.739906
4.345066 2.097471 -2.469719
5.711642 2.406302 -2.598316
2.457689 1.762703 -1.971663
6.102658 0.637798 -2.962256
7.724686 2.039456 -2.125578
9.941200 2.642986 -2.459965
1.291745 1.857813 -2.483038
1.875799 0.937482 -2.980380
1.789848 0.876138 -3.084161
4.268430 1.911631 -2.319029
-4.993398 2.285717 -3.598850
-3.050359 1.808812 -2.949057
-2.803296 -0.743908 -0.613629
-1.304008 1.028296 -2.922455
-3.814537 1.115706 -3.251640
-7.164436 -0.335522 -5.101789
-6.321750 -0.273513 -4.843364
-2.791758 0.453255 -3.522404
-5.223103 2.293284 -3.071028
-1.725556 0.229510 -3.239467
-4.674723 -1.068809 -7.324465
-4.685776 -0.444106 0.556215
-0.735631 0.924825 -2.780846
-2.487175 -0.177489 -3.190174
-5.339737 1.520691 -3.910059
-8.920709 3.842537 -5.721832
-0.562008 0.630091 -0.787019
-2.904052 -0.425878 -5.067766
-1.481354 -0.175012 -4.129214
-1.589448 0.620558 -0.515282
-0.219692 0.356602 -1.074723
-0.743479 1.028741 -2.742533
-3.419821 -0.604124 -5.851611
5.501562 -3.756422 6.968979
6.322176 -3.104928 9.022905
2.279943 -1.383179 2.476823
5.552184 -0.601955 2.848263
3.208351 -4.461144 8.287209
2.232459 -0.706954 2.803236
5.433327 -1.949066 2.655382
5.567073 -3.891048 7.219798
2.428193 -1.466321 3.080075
5.523486 -2.018009 2.733300
2.426660 -1.471206 3.098477
2.308816 -2.239429 7.092520
6.462873 -2.525067 7.622231
5.327062 -3.667683 6.843609
4.329807 -2.280366 2.526306
4.505507 -2.896422 5.001731
6.627056 -2.365982 7.732574
-0.514078 0.388062 0.736393
1.402102 0.294096 1.006998
3.410738 0.465457 1.025715
2.673654 -1.398997 4.426139
10.097993 0.988075 1.173152
6.262596 -4.095548 7.092248
10.302851 0.974037 1.223373
11.607034 -2.074796 0.480032
7.124173 -2.475184 4.989675
10.360967 -1.201587 -0.269170
12.339546 -0.574970 1.269608
5.436338 0.152965 0.613756
10.571291 0.948912 1.272793
5.232420 0.548971 0.332328
10.765459 0.954114 1.320819
12.678283 -0.932954 1.188797
8.628555 -3.418619 4.828525
6.944076 -1.613994 4.500384
4.383069 2.160702 -2.482594
5.896456 2.154120 -2.329222
0.979483 1.984119 -2.602391
2.987697 2.007829 -2.549350
2.896706 2.003403 -2.534123
2.429301 -2.021600 2.961521
2.251524 -1.052390 2.626744
3.947076 -1.906684 2.178620
3.565316 0.375061 1.240315
3.476189 0.425388 1.114162
2.263577 -1.408900 2.510082
2.155464 -1.034341 2.902252
2.548991 -0.278413 0.980562
3.471839 0.318257 1.298290
2.528108 0.299778 1.183229
2.555166 -0.988752 1.371838
2.257839 -1.419833 2.548926
3.385466 0.378890 1.251029
2.345616 -1.785603 2.341308
5.459874 -0.039240 1.849389
2.147865 -1.032027 2.918865
2.410537 -1.083931 2.489360
3.537814 0.294997 1.391720
6.382751 -1.817242 6.347888
2.479871 -2.086550 6.614595
7.148665 -2.943543 5.540021
2.474446 -2.120001 6.658832
6.411390 -4.413127 12.655994
6.916027 -2.315974 7.750111
4.782746 -0.613869 2.563841
6.564011 -1.419789 4.076325
6.354761 -0.282766 -0.274120
6.232182 -0.188388 -0.245087
6.466734 -0.569371 -0.096912
6.412569 -0.513903 -0.113706
6.323907 -0.333368 -0.312827
6.068709 -0.477340 -0.110162
5.791366 0.547263 -0.512813
8.121904 0.209453 0.517075
6.324309 -1.487297 1.126772
6.081503 -2.751141 4.737635
6.302902 -1.491769 2.077730
3.629874 1.107237 -1.665871
4.079831 1.275290 -1.753409
4.344927 1.143351 -1.637167
4.156277 1.465797 -1.731491
10.376761 2.178640 -1.864803
3.937624 1.640488 -1.839840
5.169795 1.280886 -1.653376
4.013726 1.620380 -2.034298
4.146707 1.447419 -1.721441
3.710560 1.815333 -1.735673
2.764097 1.570119 -1.840743
8.437325 0.518571 -3.465971
2.583247 1.716565 -1.910402
6.926136 2.472175 -2.381761
7.601647 2.994036 -2.918286
2.571729 2.144674 -0.784913
-2.707072 -0.705142 -0.708166
-3.901124 -0.639078 -6.040817
-3.205931 0.165724 -4.512218
-4.601852 1.355699 -3.951299
-2.858290 -0.066933 -3.887636
-3.036239 -1.562897 -0.544754
-1.041403 -0.087222 -3.682704
-3.108998 1.521073 -3.137573
-2.259110 0.183296 -3.532359
-3.013679 0.754695 -3.550782
-3.006187 0.435975 0.558508
-2.723490 1.142902 -3.464209
-2.390275 0.917699 -3.302775
-3.596494 0.963393 -4.025425
-2.801090 0.911984 -3.550428
-4.222912 -1.780555 -0.570902
-3.169733 0.553110 -3.636886
-3.792730 0.387953 -4.129636
-5.066267 -0.575718 -5.404437
-2.822436 -1.153779 -1.267101
-2.093804 1.085836 -3.380434
-4.334464 -2.027836 -0.572591
-2.407794 0.291093 -3.605453
-3.693496 -0.838907 -0.620592
-3.484988 -0.470765 -3.897161
-4.102225 -1.655185 -0.688698
-3.084145 0.980006 -3.568653
-3.131877 0.946542 -3.695548
-1.582191 -0.169300 -0.023560
-1.305088 -0.037023 -0.184591
0.146163 1.432809 -2.321654
-3.772069 0.374987 -4.129919
-3.794349 -1.248457 -1.831201
-3.216333 -1.500333 -0.957922
-1.721017 0.467058 0.299602
-3.803809 -1.679477 -1.330817
-1.098254 -0.006402 -3.597856
-4.522799 1.344380 -3.936495
-3.947185 -1.381463 -1.067538
-1.572671 -0.905010 -2.830410
-2.976897 -1.058860 -1.140373
-0.782840 0.705415 -0.087707
0.165596 1.282304 -2.390550
-0.701974 0.034808 -3.462711
-0.673532 0.010954 -3.366852
-1.622752 -0.384059 -3.054310
-3.330563 -1.045559 -1.756420
-3.848374 -1.705644 -1.338615
-0.784895 0.320889 -2.582910
-2.848891 -1.784829 -0.478922
-2.912710 0.439370 -3.634646
-1.714187 -0.431360 -3.152709
-0.810461 0.942568 -2.885100
-0.432373 0.338499 -2.419442
-3.407872 -0.189735 -4.393595
-1.845439 0.159475 -2.947914
-3.164569 0.392948 -3.846395
-2.793292 -1.125052 -1.259237
-2.863054 -1.428877 -0.608097
-0.720778 -0.030051 -3.469755
-0.619012 0.012878 -3.428092
-2.704046 -1.028440 -0.826770
0.159244 1.465882 -2.289835
-0.607824 1.011966 -2.596385
0.147235 1.522145 -2.274317
-2.051236 0.464142 -2.915984
-1.197646 0.524826 -2.577985
-1.015043 0.995521 -2.646530
-0.672118 0.011537 -3.379616
-0.657009 -0.016023 -3.525030
-2.921634 0.905084 -3.544359
-2.832882 -1.249444 -0.716545
-1.994926 -0.216901 -0.696582
-3.116283 -0.138467 -4.162678
-1.444183 0.570632 -0.292696
-0.006866 0.197489 -2.826256
-0.630769 1.020208 -2.633968
-3.421354 -0.856548 -0.861485
-2.329539 -1.050142 -0.803952
-0.701703 -0.014198 -3.444503
-3.858335 -0.383461 -4.797966
-1.229210 -0.170834 -1.198259
-4.918233 -2.817801 -0.237797
-3.709216 -1.997111 -0.541365
-0.748100 -0.054734 -3.546347
-2.939821 0.916293 -3.558786
-2.713470 -0.973674 -1.481025
-2.002624 -0.368519 0.219223
-1.661732 1.459912 -2.324960
-1.768892 -1.096771 -0.396855
7.531536 -1.495099 5.722636
5.337703 -6.124088 11.801427
6.877595 -2.758476 5.191767
5.616201 -1.749955 2.063201
6.753042 -2.275681 7.415731
4.904454 -3.134169 5.450026
7.318420 -3.516408 8.412214
7.870068 -6.141383 12.004781
7.066312 -2.241669 7.429084
5.172498 -3.070198 5.150141
1.694512 -0.816630 0.730130
5.431851 -1.627554 1.950754
3.160991 0.683862 1.455568
6.682431 -1.228342 4.743351
7.085271 -2.088948 5.162643
9.836084 -1.889781 0.609316
7.297323 -1.717661 4.777531
21.060217 6.098705 -10.276966
7.232803 -1.652818 4.653866
7.054727 -0.920936 2.781396
12.214396 -2.361153 0.550708
3.140668 2.032445 -2.521371
4.092050 2.092298 -2.473409
1.207150 1.915075 -2.598650
4.174309 1.986709 -2.368064
5.407678 2.022254 -2.255759
4.951611 1.889466 -2.246310
1.514207 2.006991 -2.657604
2.846378 1.943356 -2.480784
1.640141 1.975278 -2.617789
2.053756 0.933846 -3.104210
6.532786 2.243452 -2.384388
1.623412 1.986848 -2.629601
3.890870 1.939188 -2.431836
1.481061 1.729915 -2.220729
3.897861 1.942695 -2.441772
6.912286 2.344736 -2.431432
3.883982 1.712633 -2.230672
-13.235164 4.074739 -6.780941
-2.967044 1.477031 -3.052297
-1.848448 1.644460 -2.792530
-3.173787 1.116077 -3.023292
-5.204840 2.109593 -2.873227
-3.474545 1.822144 -2.481956
-1.522921 -0.226786 -0.088323
-9.978346 2.074272 -3.826298
-9.481903 3.094942 -4.295774
-3.240570 1.881876 -3.067334
-0.994033 1.097090 -3.060606
-1.520706 -0.226751 -0.091130
-2.200447 -1.023093 -0.685455
-1.584697 0.383718 0.183015
-2.549475 1.792452 -2.892329
-5.012002 0.535888 0.639962
-2.493012 0.004396 -0.296004
-1.471807 -0.199328 -0.127820
-4.438558 -1.268175 -0.972139
-2.800617 1.345617 -3.189161
-1.467079 -0.135602 -0.098352
-3.329069 -0.994638 -1.042256
-3.062641 0.980711 -3.351266
-3.252314 -1.123374 -0.829905
-1.372971 -0.448793 -2.309323
-3.729637 -1.483195 -1.173841
-2.471744 -0.832103 -0.845247
-3.350157 -0.703517 -0.575379
-4.494685 -1.931045 -1.219261
-3.807160 -1.036365 -3.021129
4.950011 -3.820464 6.965704
-1.987536 0.120230 -0.223383
-4.291617 0.308100 1.125248
-2.988049 -0.528518 -0.591895
-2.104301 0.097582 -0.171177
-3.224554 -0.631644 -0.553163
-5.173639 -0.773409 -0.723012
6.893495 -1.114504 4.194606
6.868396 -1.107969 4.174216
7.522711 -0.645999 4.362962
13.576574 -3.146389 9.004169
8.040633 -0.766174 4.950112
9.392769 -0.800866 5.767833
6.483752 -4.049400 7.109385
6.320778 -3.762550 6.679830
6.330437 -3.800183 6.702693
6.328521 -3.795100 6.705185
6.555791 -3.813893 6.634992
6.330487 -3.799429 6.706581
2.688419 1.844381 -2.039105
2.737814 1.856911 -2.051901
2.725550 1.870465 -2.059110
2.038005 0.927746 -3.068908
3.089648 2.038937 -2.526059
-26.421545 -0.174829 8.619920
-11.266454 0.382968 -3.402531
-2.966973 -0.063470 -0.105286
6.818125 -2.062545 7.103985
1.327103 -1.036134 0.630165
7.908582 -1.710798 5.045457
7.273391 -1.545684 4.411222
2.296983 1.825518 -2.436960
5.180022 2.139675 -2.444522
3.185575 2.063448 -2.045180
-4.917785 -1.275184 -1.357405
-3.801161 2.266675 -2.795641
-7.607872 -0.366076 -1.111900
-12.124026 -1.189544 -1.815973
6.548365 -3.811128 6.647952
6.502620 -3.773174 6.682052
-18.455309 -1.763179 -5.275742
-13.929762 -0.577021 6.207667
-16.700373 -2.924951 -2.745695
-6.515498 0.010634 0.074238
7.211770 -2.483233 3.800010
7.286337 -2.520553 3.850552
7.029387 -1.028983 4.411658
-3.672113 -1.349919 -8.265869
6.478714 -3.330895 6.399025
5.497779 -1.661673 1.989972
5.730242 -1.841723 7.386006
4.835524 -1.489736 1.598594
7.656346 -1.052389 5.699280
6.163040 -0.548695 -0.093345
5.577610 -0.668653 0.994849
7.243845 2.161700 -2.287748
8.711149 3.432877 -4.488066
3.905319 1.952851 -1.695323
1.265592 1.865471 -2.485516
6.136267 2.170507 -2.340514
4.141490 2.142086 -2.467753
4.559826 2.377864 -2.623839
2.857373 1.962278 -2.624762
-6.292815 2.347949 -3.254772
-4.651157 1.262999 -3.593911
-13.072291 2.723748 -5.520885
-9.745296 2.064987 -4.404244
-14.162648 0.266849 -4.930816
-5.550706 -1.310423 -1.061578
-14.368681 -0.939297 -5.326235
-2.823499 -0.161487 -3.811013
-2.639096 1.277448 -2.915661
-2.789250 -0.737611 -0.618597
-2.392241 0.056872 -0.265212
-2.147469 0.131996 -0.375030
-3.861506 0.084284 -3.491099
-0.744854 0.926689 -2.800018
-5.467364 -0.327660 -4.274252
-2.903089 -0.762109 -6.226146
-2.831840 -1.318298 -0.962013
-2.540880 -0.447515 -1.767308
-3.363680 -1.037305 -0.534966
-4.478492 -2.193060 -0.548078
-0.728597 1.024718 -2.766609
-1.474124 -0.084073 -0.093708
-4.334913 -1.801133 -0.618642
-4.477511 -0.904325 -3.642534
-2.889854 -0.803585 -2.199837
-2.151741 -0.620914 -1.588581
-2.355813 -0.393717 -1.661564
-2.523337 -1.185304 -0.722097
-4.065740 -0.855602 -6.621968
-4.135272 -1.635443 -1.312790
-3.305111 -1.454446 -0.695007
-3.155131 1.065586 -3.468783
-2.005075 0.320329 -3.438685
-2.817590 -0.631722 -1.690088
-4.130318 -1.339555 -1.920017
-5.671176 -2.030113 -1.078384
-4.180017 -0.171778 -4.762119
-0.729970 0.661226 -0.715787
-2.971666 1.496640 -3.052520
-0.988081 0.026630 -3.417567
-0.881537 1.059356 -2.803278
-3.234873 0.014190 -3.944285
-2.979380 -0.069769 -3.797437
-9.510620 -2.871294 -14.159222
-3.899922 0.516411 0.272964
-1.037607 0.653680 -0.728376
-2.261608 -0.858373 -0.758741
-1.517964 -0.119172 -0.074008
-2.111741 -0.274718 -0.830415
-6.701926 -2.886307 -0.419367
-0.733874 1.021374 -2.777287
-3.787411 -1.088977 -2.393982
-0.820457 0.159168 -2.997245
-0.688641 1.764954 -2.143631
-4.625828 -1.378990 -0.580820
-1.452238 -0.139538 -0.122167
-1.334092 0.046248 -0.103208
-1.246718 1.206650 -2.856394
-1.170149 1.137233 -2.799599
-1.322449 1.185148 -3.010240
-1.290681 1.031899 -2.919183
-2.506829 0.263226 -3.783855
-1.919145 0.310219 -3.390032
-2.264132 -0.404697 -1.894013
-4.209795 -1.726269 -0.669865
-1.435130 -0.069145 -0.069228
-2.991535 1.964369 -3.134564
-0.972361 0.036740 -3.383482
-0.994891 0.002069 -3.512233
-2.150747 0.943702 -3.172020
-2.601339 0.585690 -3.394563
-0.712598 0.667983 -0.764560
-4.370883 -0.167061 -3.604568
-2.856675 -0.780491 -2.199966
-2.728350 -1.009543 -1.452007
-1.443278 -0.985965 -1.048604
-2.178519 -0.933179 -0.748949
-5.570206 -1.389541 -1.539577
-0.665551 0.668450 -0.783484
-1.606156 -0.274387 -0.945892
-2.373870 -0.711115 -0.889890
-1.402997 0.646698 -0.488668
-2.400513 0.078359 -0.206340
-1.717629 -0.228209 0.043856
-3.125784 2.009461 -3.231619
-3.731901 1.190947 -3.853463
-4.891046 -1.676321 -0.760949
-3.392563 -0.911252 -0.459457
-3.180897 -0.925186 -0.519280
-0.894162 0.069714 -3.287178
-2.597506 0.244391 -3.877675
-2.248123 -0.399694 -1.898465
-2.972488 -0.823230 -2.269216
-2.777355 -0.568678 -1.972354
-3.763236 -1.084625 -1.786473
-2.435206 -0.647825 -1.589508
-2.204191 0.947743 -3.222138
-2.084452 -0.866971 -0.768168
-1.503505 -0.116123 -0.087248
-1.010750 -0.009912 -3.546539
-2.361357 -1.077701 -0.771954
-2.853379 -0.980688 -0.826426
-1.156298 0.657750 -0.554561
-0.616817 0.669327 -0.784784
-0.883981 0.074142 -3.262348
-6.355370 1.542426 -4.549054
-4.429461 -1.405588 -2.675479
-1.991529 0.139795 -0.264908
-1.855287 0.638803 -0.256786
-2.259950 -0.526588 -1.051014
-1.681214 -0.211763 0.019222
-1.583112 0.509638 0.132034
-1.453144 0.493930 0.073696
-2.084457 -0.866974 -0.768167
2.591117 -0.614889 0.983163
2.544254 0.116751 1.031281
2.515375 0.068780 1.089182
2.521449 0.049402 1.031414
2.549310 -0.278914 0.980292
2.596063 -0.843298 0.771857
3.661384 -1.625292 2.184279
2.609743 -0.573316 0.973957
2.228631 -1.450924 2.575875
2.494792 -1.858366 2.763703
2.339850 -1.627931 2.478435
3.474892 0.321827 1.310863
3.531828 0.283365 1.365981
2.576548 -0.284611 0.975372
2.512045 -2.824014 6.788274
2.530233 0.200487 1.077487
2.546928 -1.005487 1.387011
2.174434 -0.680057 2.915182
5.242995 -1.988001 2.082621
1.687021 -0.562959 0.855346
3.392080 -1.710190 5.626889
2.525903 0.123468 1.045967
2.528653 0.047669 1.024734
2.471390 0.019550 1.784409
0.999121 -0.520749 0.835238
3.384917 0.375219 1.253705
2.247726 -1.022097 2.660323
2.614159 -0.570122 0.969514
2.539231 0.193780 1.102266
2.604487 -0.585830 0.978263
3.916134 -1.357487 1.304428
2.611000 -0.409830 0.929573
2.479026 0.017404 1.760702
2.483863 -0.461175 2.642442
5.573764 -1.741077 2.074460
1.446197 -0.550521 0.578718
2.526913 0.050804 1.025045
2.568058 -2.536330 6.141231
3.198767 -0.119277 0.568252
2.600154 0.320650 1.071080
14.715466 4.404341 -6.686291
5.821248 0.538824 -0.476909
5.923928 0.505708 -0.486744
6.364824 -0.879859 -0.222928
6.350131 -0.871847 -0.199299
5.825765 0.536883 -0.479654
5.938426 0.501215 -0.494929
5.912830 0.509149 -0.480479
5.827242 0.534824 -0.431616
5.806116 0.542998 -0.467356
5.262404 0.497657 0.307562
5.967928 0.489304 -0.509818
5.956338 0.492943 -0.503299
6.517990 -0.664679 0.213293
6.467294 -0.600146 0.089397
6.461996 -0.647096 0.062901
6.487410 -0.740590 0.151032
6.074949 0.472564 -0.690481
5.893483 0.524836 -0.566930
5.816993 0.539473 -0.504727
5.836195 -0.903855 0.692788
6.495590 -0.749548 0.152133
6.454694 -0.555554 -0.097580
6.475266 -0.611617 0.044861
5.726749 0.567905 -0.429914
7.887053 -1.333538 0.625256
6.068598 -0.475574 -0.111519
3.106907 2.195323 -2.650705
9.835552 1.869364 -2.131841
4.820448 2.015558 -1.972723
3.721572 2.021004 -2.415351
5.564917 2.141366 -2.320743
3.983891 2.269245 -2.610023
7.789896 2.080113 -2.160255
6.063836 0.631850 -2.631259
3.716920 2.172493 -2.559230
3.621555 2.123045 -2.467579
3.080842 2.081783 -2.557177
10.743529 2.084854 -1.944866
7.140242 0.622596 -2.812429
7.029750 0.630805 -2.720825
6.070028 2.066310 -2.166746
6.177135 2.061546 -2.153859
4.847570 0.286157 -2.553999
4.067576 2.227028 -2.571459
3.833807 2.183397 -2.541608
3.921896 2.149886 -2.528484
3.898667 2.086882 -2.554773
9.991167 0.981933 -2.504071
10.084192 1.100728 -2.450948
4.881936 0.272708 -2.593146
4.450305 2.146738 -2.420749
3.806945 1.956892 -2.022096
3.621394 2.204191 -2.462747
6.144339 2.009870 -2.250482
3.589868 2.025854 -2.068922
2.680534 2.379669 -2.926183
6.585940 0.640869 -2.612271
6.786890 0.595373 -2.830914
7.466571 2.051603 -2.085603
6.589471 0.609558 -2.812645
5.983076 0.554273 -2.717993
6.042997 2.096997 -2.311694
3.099552 2.209798 -2.664287
7.292091 2.074988 -2.093899
7.359790 2.014598 -2.119381
6.361692 2.161325 -2.209816
0.301628 2.261944 -2.912106
3.721912 2.015769 -2.410762
9.941781 0.928450 -2.452250
10.215339 0.952517 -2.480335
4.443485 2.030340 -2.390041
3.469465 2.108204 -2.515783
6.146594 2.135543 -2.237955
10.015086 0.923664 -2.467220
6.113834 0.488998 -2.823921
4.074069 2.263082 -2.600961
7.174407 0.619719 -2.828494
8.365018 2.584785 -2.532764
3.072175 2.096813 -2.571446
2.140538 1.878873 -2.016743
3.456172 2.158164 -2.556683
5.188334 2.120580 -2.402104
4.245593 2.179062 -2.519904
2.321074 2.282296 -2.337283
10.425545 1.814059 -1.564383
3.938039 1.829384 -1.622668
10.089463 1.345034 -2.399216
7.466571 2.051603 -2.085603
7.850839 2.099193 -2.172082
6.165642 0.643300 -2.993915
3.958781 2.169354 -2.554687
9.985604 0.875508 -2.370887
11.638892 1.916311 -1.547157
7.202773 -0.600231 -4.465371
4.446754 2.139605 -2.415078
4.442809 2.039086 -2.395699
1.937709 2.172966 -2.296451
0.437029 2.574396 -3.268625
2.926690 2.004616 -2.123900
13.931548 5.074589 -0.551480
10.558205 1.864634 -1.996927
13.777008 5.005047 -0.568584
6.588593 0.666364 -2.538482
7.188361 0.618337 -2.835092
6.022637 0.502105 -2.762488
6.110133 0.487601 -2.818800
4.284152 2.049464 -2.406629
4.089528 2.028730 -2.402442
4.127970 2.181417 -2.547340
9.993288 1.329762 -2.390149
6.041597 0.684220 -2.948099
3.934762 1.840745 -1.626532
2.737221 2.679516 -3.132851
6.607492 0.344835 -2.419253
6.721687 0.316572 -2.463260
0.894377 2.101496 -2.591891
0.844027 2.048141 -2.447755
3.951644 2.142972 -2.525867
12.016999 1.935140 -1.467880
11.763587 1.930172 -1.553480
2.300689 -0.498334 2.964099
5.772752 -1.956349 2.303120
2.525754 0.182271 1.443370
2.556725 -0.988164 1.367710
3.107721 0.460218 1.116056
2.321100 -0.497166 2.913891
3.973912 -1.584837 1.541304
1.111253 -0.497446 0.820349
2.577589 -0.059121 0.709713
2.523571 0.068600 1.082640
2.640246 -0.798546 0.756573
4.782970 -2.356359 2.763104
2.520674 0.057693 1.077457
6.321200 -0.209072 2.012134
6.884921 -1.984035 4.704025
6.266588 -2.888407 4.836864
5.876067 -2.219734 2.419278
5.899938 -2.320282 2.491300
6.062411 0.382049 -0.228019
6.282269 -4.011283 6.900127
6.424825 -3.411622 6.074386
14.577996 -1.908442 1.454260
6.883332 -1.931908 4.644500
8.090761 -2.470620 3.578236
6.910936 -1.914346 4.514567
6.292335 -0.051453 1.754408
7.139001 -3.048537 6.095379
6.829681 -1.918815 4.621206
6.158234 -2.170604 2.331361
6.251370 0.300687 -0.428387
6.097538 -3.034465 4.904198
7.502952 -1.695653 1.451488
6.246754 -1.708221 2.445474
11.451176 -2.694778 2.407115
6.792310 -2.115547 4.150845
6.180569 -2.235832 2.375975
9.846324 -1.772358 1.375048
9.297840 -0.715432 0.043020
6.798257 -1.545320 4.420489
11.966353 -0.676987 1.141629
5.998536 -2.941684 4.704586
9.398353 -0.509491 -0.145011
7.701839 -4.574519 2.388472
6.463324 -0.660058 2.791569
6.882946 -1.414423 1.147891
9.944872 -0.940056 -0.009177
7.265055 -2.095518 2.586819
9.744408 -1.732723 1.352575
11.987904 -0.697953 1.125194
6.112398 -1.399312 2.165412
6.164434 -2.188179 2.342577
6.196745 2.073083 -2.158997
2.678862 2.382089 -2.927339
4.441772 2.152534 -2.429294
3.874793 2.224402 -2.583383
3.200264 2.478928 -2.827485
3.077908 2.086786 -2.562952
6.013687 0.552864 -2.742823
4.075893 2.269742 -2.608087
3.705078 2.215847 -2.609156
10.188280 1.616030 -2.052586
9.901770 1.215457 -2.340365
9.589127 2.275991 -2.157996
6.459478 3.167850 -2.461875
3.432298 2.684398 -2.874613
3.769750 1.970010 -2.030540
6.125874 2.001301 -2.243063
13.317496 3.796102 -3.246296
8.805566 2.211590 -2.167123
6.763648 0.597776 -2.818961
8.686708 2.430727 -2.313579
7.699588 2.046483 -2.132078
8.339496 2.241642 -2.258728
7.536452 2.110469 -2.206298
3.586783 2.044008 -2.079606
2.492847 -0.120190 0.945429
2.582782 0.173032 1.202280
3.980064 -1.560530 1.570935
2.515666 -0.010689 1.051815
1.358289 0.314498 1.025976
3.371228 0.378937 1.246767
2.215457 -1.425481 2.616897
3.668521 -1.657955 2.243966
2.568352 -1.002822 1.391394
5.620440 -2.113814 2.838703
2.323374 -1.181046 1.958331
3.370918 0.378296 1.246128
2.546083 0.110699 1.563510
2.575805 0.232384 1.233254
2.294147 -1.330652 2.458140
4.745164 -2.824584 4.903131
1.323397 0.372714 0.930542
2.506176 -0.118831 0.940101
5.583685 -2.083787 2.803301
3.968893 -1.487541 1.426860
1.465959 0.282838 1.009039
2.762379 -1.580357 2.687703
2.546767 -0.108445 0.948565
2.542183 0.111091 1.568841
2.608103 -0.297828 0.977518
3.370843 0.379675 1.249925
2.607803 -0.553962 0.899146
3.385656 -1.684022 2.614725
3.386443 0.499785 0.968072
2.540753 0.119372 1.038648
2.588344 -0.581375 0.986801
3.643597 0.067680 2.060351
3.369963 0.377385 1.247021
2.662421 -0.762858 0.874194
2.554763 -0.107250 0.944130
2.741822 -1.644216 2.778227
3.196741 -0.648755 1.366594
2.506593 -0.036334 0.996384
2.549502 -0.089328 1.010545
2.572399 -0.294255 0.991766
2.602327 -0.502813 0.923178
2.603567 -0.536584 0.922139
2.630424 -0.516903 0.906811
2.605695 -0.557057 0.900385
1.470087 0.281405 1.007892
0.933088 -0.528906 0.837754
2.618369 -0.548807 0.895949
4.318221 -1.070996 4.107565
3.376417 0.395731 1.272726
3.644756 0.066377 2.067082
2.425385 0.230558 1.523398
2.477411 -1.934167 6.146505
1.023243 -0.507730 0.833951
2.541302 -0.095089 1.010026
2.336774 -1.177532 2.659206
2.259940 -1.415699 2.520221
3.646542 0.071055 2.067358
2.635714 -0.736528 0.788719
3.911767 -1.672565 1.704816
2.490431 -0.119798 0.946746
2.301184 -0.623546 2.662678
2.575990 0.189946 1.350012
2.930866 -1.219722 2.169529
3.386091 0.502436 0.970084
2.914863 -1.280210 2.252296
2.279579 -1.390416 2.480556
3.551296 -3.494431 7.056730
4.051215 -1.634992 1.429148
1.411440 0.292051 1.010893
-0.015256 -0.562814 0.571637
0.901615 -0.010221 0.704482
1.375068 0.221446 0.798566
-1.698095 -0.273735 0.679957
0.839904 0.388761 0.812341
2.034837 0.323279 0.980791
-2.269367 -0.312730 0.604027
-1.914963 -0.433059 0.564872
-1.857054 -0.277736 0.643116
2.508107 0.066541 1.013313
2.648864 -0.109131 1.011149
-1.900421 -0.291664 0.592453
-0.332258 0.243922 0.440950
1.022623 0.272238 0.830330
-0.774467 0.240277 0.901532
-1.889182 -0.291190 0.589648
-2.250334 -0.325351 0.666953
-1.917456 -0.292712 0.605896
-1.567314 -0.306102 0.606571
-1.776019 -0.412019 0.518674
2.939404 0.329711 1.080608
2.619520 -0.486421 0.802043
1.065872 -0.543261 0.483832
-0.367758 0.136581 0.249290
-1.614584 0.253957 1.072176
-0.293677 0.210125 0.380963
-0.865931 0.208288 0.902712
0.640905 0.450121 0.792682
-1.387644 0.282704 1.125456
-1.839903 -0.282004 0.573775
0.486721 -0.437267 0.645577
2.853382 -0.010596 1.100576
2.648821 -0.038968 1.017287
-0.786363 0.237169 0.907171
2.628112 -0.478222 0.806576
-1.668938 -0.379472 0.619468
-1.700232 -0.336729 0.585202
1.170571 -0.631640 0.461727
-1.764401 -0.283288 0.602894
-1.842335 -0.288399 0.582057
2.900326 0.199510 1.235061
-1.863326 -0.278554 0.539519
-1.830346 -0.282931 0.592908
-2.250246 -0.349645 0.729136
-0.963022 -0.141683 0.287736
-1.650170 -0.378974 0.472410
2.899824 0.101967 1.192667
2.713932 -0.022423 1.033942
2.802416 0.138419 1.156861
2.497906 0.058561 1.001980
-2.173004 -0.297671 0.593744
-0.059320 -0.653018 0.580950
-0.457672 0.057759 0.249499
1.446294 0.205725 0.829220
2.569115 0.183874 1.088907
1.132932 -0.606460 0.451663
1.044159 -0.575963 0.426616
-0.270600 0.258986 0.379214
-1.917840 -0.291965 0.599771
0.788367 0.384435 0.814790
2.523972 0.325302 1.126820
1.093994 -0.796171 0.244440
-1.784531 -0.276513 0.618374
2.506245 0.056676 1.004681
1.367511 0.360706 0.893711
0.297049 0.480786 0.694164
-2.258016 -0.306727 0.601313
0.900426 0.110762 0.760623
-1.790282 0.160871 0.751637
-0.737411 0.114622 0.490466
2.301614 0.071785 0.949125
0.996138 -0.418679 0.503039
1.011916 -0.537993 0.481283
-1.991300 -0.288281 0.596709
-2.440262 0.309114 1.330752
1.061917 -0.445016 0.513524
1.024624 -0.366766 0.516512
1.151947 -0.457284 0.588249
1.043398 -0.382976 0.483868
1.068558 -0.390378 0.505866
-0.189825 -0.447246 0.724439
-0.694567 0.087126 0.379324
3.266601 -0.689780 0.923328
2.551755 0.063531 1.028462
2.165660 0.153850 1.059440
2.651768 -0.292502 0.908775
-0.919787 -0.152370 0.318633
-1.656564 -0.340534 0.595649
1.416469 -0.111930 0.665392
-1.278419 0.299780 0.822316
-0.498852 0.444999 0.661129
1.093992 -0.424848 0.536681
0.364906 -0.356569 0.648654
-1.647060 -0.375085 0.614284
1.057849 -0.541727 0.479923
-2.051394 -0.312673 0.613756
-1.721769 -0.285747 0.613387
3.088392 -0.288535 1.013943
0.602862 0.124430 0.908565
1.328911 -0.715515 0.657612
-0.362110 0.079394 0.325152
-0.624117 -0.518221 0.649861
1.008029 0.339933 0.855889
-0.819811 0.240503 0.901504
-0.569836 -0.476547 0.602019
0.361299 0.263754 0.806911
1.109621 -0.374245 0.527192
-0.769796 0.014007 0.863767
1.098788 -0.464222 0.537495
0.474168 -0.309830 0.617603
1.036794 0.384069 0.870960
1.011314 0.342759 0.856967
0.918350 0.149134 0.797853
1.032676 -0.358336 0.526329
1.081744 0.367763 0.875324
1.074055 -0.451460 0.523005
1.102995 -0.441904 0.560655
0.811682 -0.323940 0.390835
1.057998 -0.412726 0.486573
0.993648 -0.411433 0.474628
1.015451 0.345160 0.864564
1.019001 -0.498522 0.464940
1.235406 -0.430627 0.601038
1.143069 -0.425907 0.538197
0.994607 -0.381095 0.495193
1.395482 -0.589556 0.739207
1.015296 0.344003 0.860903
0.965007 -0.439262 0.473445
0.497653 -0.344752 0.678196
1.279726 -1.009598 0.305989
0.897835 0.339457 0.857567
2.565633 0.368636 1.387530
1.392754 0.353390 0.879242
-0.768760 0.190367 0.942809
-2.424803 -0.348975 0.700759
-0.747884 -0.039127 0.789374
-0.536740 -0.458223 0.580175
-1.634063 -0.315242 0.630683
-1.638456 -0.279561 0.648544
-1.713690 -0.284365 0.650343
-1.870720 -0.403364 0.612309
-0.778923 0.195653 0.951452
-1.771429 -0.315548 0.638745
-1.717056 -0.274292 0.613091
-0.885176 -0.141156 0.278795
-1.910310 -0.293234 0.593576
-0.572313 -0.480713 0.608816
-1.755908 -0.274012 0.609941
-0.796064 0.199207 0.971518
-1.652112 -0.274563 0.651009
-0.821964 -0.201397 0.293364
-1.719067 -0.273310 0.614122
-1.793841 0.518817 0.952416
-1.613852 -0.304534 0.623871
-1.712376 -0.283470 0.673500
-1.564602 -0.261593 0.594129
-0.020141 0.296015 0.530319
-1.728636 -0.278531 0.690128
-0.582694 0.360475 0.656537
-1.650215 -0.266515 0.648410
-1.537840 -0.295297 0.594181
-1.704570 -0.278358 0.652545
-1.794677 -0.287998 0.646123
-1.192059 0.351934 0.646691
2.596280 0.161452 1.102821
2.478320 0.060415 0.980541
2.616513 0.853637 0.821583
1.905632 0.840116 0.812293
0.900479 0.336801 0.861602
0.906600 0.327099 0.804730
0.779100 0.377897 0.794619
2.800786 0.473125 1.485024
2.917408 0.506630 1.583711
2.272347 0.320746 1.180375
2.155802 0.316139 1.128129
2.266434 0.326461 1.038386
1.140613 0.353900 0.870118
2.237988 0.382346 1.178746
0.869128 0.438814 0.840560
0.640408 0.445235 0.785857
0.969444 -0.445770 0.477098
0.418432 -0.453417 0.589136
2.177770 0.215692 1.083842
1.094590 0.401961 0.880064
1.366002 0.353414 0.890936
1.159017 0.331041 0.803699
1.121524 1.415637 -2.243335
-0.666745 1.577660 -2.584125
-0.765764 1.225935 -2.608412
-0.752085 0.720635 -3.058282
-0.713031 1.614207 -2.612307
-0.488499 0.922246 -2.852138
-0.597552 0.707194 -2.917479
-0.886903 1.412992 -2.828415
-0.896089 0.790861 -3.039615
-0.885618 1.411469 -2.830748
2.463250 0.362236 1.145953
2.066130 0.293731 0.974179
1.118294 0.383582 0.930636
1.313070 0.399694 0.901316
1.269996 0.364336 0.876798
0.921916 0.337733 0.831018
1.065148 -0.528991 0.491952
2.478436 -0.094102 0.950417
0.864140 0.453726 0.772141
1.147850 0.344133 0.864164
1.031092 0.269483 0.838459
0.920322 0.192803 0.795357
2.675041 -0.813056 0.648638
1.100624 -0.584949 0.526674
0.813155 0.391960 0.780195
0.833950 0.397248 0.825772
1.113483 0.391996 0.894041
2.440734 0.356234 1.177337
3.793633 0.578984 1.105718
1.114044 -0.631139 0.465543
2.944008 0.113268 1.418134
1.016478 0.265159 0.825231
1.331068 0.478794 0.918356
-0.582495 -0.490832 0.552818
-1.595089 -0.309187 0.615786
-0.929270 -0.179844 0.288923
-1.866536 -0.407214 0.528598
-1.947212 -0.435474 0.559678
-1.921500 -0.309273 0.550099
-2.229359 -0.341823 0.690024
-2.084158 -0.321430 0.660732
-0.726241 0.214617 0.842902
-1.597010 -0.273241 0.615828
-0.013669 -0.373444 0.633705
-0.755118 -0.040523 0.793610
-0.698756 0.420136 0.619538
-1.696961 -0.281279 0.615597
2.499533 0.263620 1.089545
2.208189 0.372068 1.199891
0.933320 -0.482773 0.436465
0.308384 0.000269 0.071974
0.604395 0.121638 0.901338
1.132545 -0.608186 0.452716
2.194658 -0.140470 0.923288
0.980414 0.229074 0.826188
1.099895 0.405162 0.887759
2.542871 0.363552 1.189862
2.554147 0.827524 0.800528
2.541096 0.156950 1.063670
2.499352 0.089938 1.009212
2.338359 0.077188 0.955474
2.491301 0.256320 1.084181
1.020594 -0.570211 0.422674
2.728519 0.025813 1.104954
2.414385 -0.088993 0.914619
1.011216 -0.528232 0.477057
2.772721 0.236930 1.215990
2.698971 0.193924 1.158742
1.264818 0.414440 1.002058
1.084555 0.378352 0.874904
-0.639094 -0.298752 0.665529
1.034907 -0.473879 0.508838
0.743410 0.083253 0.846962
0.409929 -0.336922 0.494730
1.155520 0.421482 0.979834
1.043992 -0.421872 0.505894
0.320611 -0.003136 0.054392
0.792594 0.166101 0.625716
0.604811 0.355296 1.080296
0.729583 0.078939 0.828410
-0.769534 0.007549 0.857709
1.153572 -0.575276 0.490687
1.005525 -0.463047 0.494980
0.975421 0.220518 0.815563
0.390611 0.278608 0.916125
-0.253907 -0.291564 0.481908
2.602489 0.070915 1.054944
1.062187 0.160648 0.729989
1.260499 -0.962148 0.293440
2.824696 0.222109 1.195395
2.827410 0.218888 1.195027
2.565048 0.825393 0.802190
2.808962 0.262593 1.158443
1.105456 0.409731 0.895792
-3.929019 -0.625866 -0.550811
-3.326852 -0.694184 -0.740386
-3.399055 0.503051 0.351928
-3.754461 -0.294191 -0.883012
-3.741238 -0.711847 -0.503879
-3.714890 -0.470594 -0.661725
-3.682550 -1.053853 -0.321731
-3.708803 -1.174894 -0.304092
-3.694044 -1.133702 -0.338729
-3.583109 0.311301 0.411806
-3.735539 -1.181784 -0.595593
2.115125 0.353973 1.117720
1.457559 -1.155467 0.347903
1.030772 -0.470225 0.504880
2.443981 0.353651 1.137501
2.336507 0.301468 1.052189
2.551481 0.131188 1.058829
2.409477 0.136274 0.995348
1.087718 -0.610737 0.450766
2.448147 0.042229 0.971422
2.530388 0.208332 1.085885
2.276845 0.162196 0.975456
2.399876 0.093078 0.968157
1.942746 0.846646 0.826699
0.873623 0.442074 0.844002
1.847206 0.261071 0.920880
1.021195 0.327901 0.799034
1.066717 0.388375 0.896754
1.087416 0.406361 0.997076
2.753581 0.899795 0.865986
1.200053 -0.949002 0.284429
1.848368 -0.269308 0.698340
0.396122 0.066160 0.857245
2.724787 0.291466 1.389977
1.008394 0.266902 0.816121
1.342818 0.340016 0.863614
2.153544 0.301850 1.100863
2.512443 0.069481 1.010488
1.048373 -0.528763 0.469336
1.065866 -0.423681 0.494472
0.487987 -0.440412 0.653753
1.000401 -0.471372 0.499780
0.666945 0.513944 0.747649
1.008150 -0.432625 0.521930
2.560930 0.219887 1.119814
2.341034 0.200282 1.020204
1.294645 0.367784 0.892547
1.373721 0.367660 0.890949
1.354268 0.353637 0.885555
2.398773 0.366248 1.120763
2.509767 0.298428 1.136857
1.121948 0.386476 0.910066
0.905808 0.334052 0.864460
2.599824 0.132071 1.075812
2.663065 0.085195 1.075084
2.484747 0.224353 1.063002
2.151407 -0.140970 0.904519
1.127044 -0.606343 0.451297
2.872431 0.028679 1.166996
1.012084 -0.526800 0.475430
2.578719 0.271622 1.108728
2.167616 0.958756 0.933573
0.604995 0.125949 0.906250
2.114456 0.318289 1.106863
1.318446 0.404158 0.898031
1.039688 0.385364 0.873531
1.144466 0.352259 0.872152
2.365247 0.351397 1.104133
1.061341 0.397091 0.897912
1.365839 0.224334 0.795650
0.991441 -0.458270 0.484598
0.415329 -0.451704 0.593151
-0.248363 0.100007 0.180960
0.646410 0.477239 0.720157
-0.757003 -0.041902 0.795729
2.794095 0.239428 0.729052
2.804082 0.303114 0.800554
2.809487 0.106948 0.710187
1.078342 -0.388081 0.509767
-0.747685 0.013144 0.845037
0.634441 0.463412 0.676043
-0.232156 -0.058433 0.135622
0.899605 0.018147 0.707800
0.071801 -0.346735 0.605118
-0.235885 -0.059102 0.136641
0.605131 0.121167 0.897736
1.012166 -0.339829 0.530213
1.009310 -0.477816 0.505308
0.870578 0.440823 0.844267
0.901280 0.138942 0.775465
