-5.044716 -7.017279 9.945318
-3.587050 -6.902039 10.282850
-5.095134 -6.355591 9.832919
-3.634002 -6.286970 10.908484
-29.077492 -8.187886 -10.992426
-21.451550 -7.921851 -4.742590
-5.080508 -5.574204 6.842590
-3.956204 -5.995098 9.734957
-31.213297 -4.736313 -7.039926
-3.583519 -5.599562 9.167953
-4.202110 -5.709722 9.863165
-3.736282 -5.508512 9.035099
-2.312803 -6.058393 9.002708
-3.149350 -5.594857 9.646843
-2.316527 -6.054603 8.994661
-4.360999 -6.721006 10.158715
-2.267436 -5.574201 10.914143
-340.763580 43.955494 -293.700317
-6.627625 -5.190165 6.601388
-4.074956 -5.746418 9.428537
-10.497947 0.044255 0.038086
-1.837733 -5.496156 10.184478
-11.907455 -4.709884 2.591105
-13.847994 -0.975304 0.747906
-21.998745 -3.927861 -0.199200
-4.577925 -5.680520 9.196642
-11.293114 -4.346738 2.332589
-7.012444 -4.940449 7.951095
-15.349603 -2.507614 3.470725
-15.724560 -7.872143 9.215430
-14.255339 -5.627984 -0.420708
-15.616928 -5.534784 -1.619857
-13.536993 -5.904967 0.703900
-2.773650 -5.875072 9.983809
-2.789771 -5.949557 9.762759
-23.600758 -3.636412 -9.853615
-4.533654 -5.536087 9.442421
-11.172588 -6.604994 4.378887
-4.196143 -5.839807 9.501030
-19.860987 -5.308333 -5.583951
-20.041611 -5.709859 -2.516006
-3.590275 -6.183803 10.016267
-10.713512 -4.322193 0.876507
-2.854327 -5.550812 10.369629
-4.148856 -6.192060 11.778725
-3.354457 -5.687624 10.195600
-3.358911 -5.687403 10.192612
-8.261327 -5.166588 6.506286
-3.360812 -5.685144 10.190430
-4.087937 -6.170548 10.096662
-3.354043 -5.583465 10.110311
-4.143443 -6.188266 11.776509
-8.549593 -5.405713 6.605964
-46.402832 -4.623298 -2.573943
-10.115858 -5.313269 9.066316
-12.608871 -3.823864 8.085854
-5.375155 -6.053366 10.053417
-6.602888 -5.439831 11.805445
-7.870616 -7.909381 9.054489
-6.165802 -7.055801 9.044403
-5.087821 -6.500566 8.923119
-18.594124 -4.203504 -4.377104
-21.871681 -7.704016 2.622939
-19.919994 -7.283366 -4.423049
-4.151575 -5.602508 10.286798
-4.171935 -5.594442 10.270658
-12.988817 -6.488750 -0.437861
-6.034961 -6.201284 10.666271
-3.612243 -6.280134 10.101102
-17.316448 -4.337272 -5.273932
-4.723300 -5.138772 9.070697
-3.817067 -6.569143 10.500618
-22.222868 -2.860455 -7.018158
-5.982567 -6.233283 9.447464
-63.265812 15.663321 -76.116638
-5.252317 -5.993877 9.023932
-8.973507 -5.119143 12.525288
-21.938595 -3.008562 3.450556
-4.832766 -6.420837 9.698662
-145.220871 7.300671 -48.595753
-222.784485 21.215435 -102.517136
-4.222153 -5.741710 10.747982
-5.449662 -6.326305 9.554267
-4.487169 -6.166059 10.429330
-18.222773 3.413664 -0.442579
-5.244984 -6.027102 9.790718
-4.476761 -6.199904 11.237003
-4.331529 -6.266304 11.809253
-4.500133 -6.293283 10.899485
-4.696975 -5.865043 11.036157
-10.849908 -7.050719 7.209195
-6.484446 -5.085774 12.540987
-6.321775 -5.226023 12.359247
-17.519638 -6.374950 1.877820
-4.429428 -6.132075 11.802939
-12.764614 -8.680998 4.566733
-5.475028 -5.587735 9.483772
-6.271723 -6.265395 10.783360
-7.485735 -6.682285 12.605612
-23.263721 1.683913 -10.682625
-9.228063 -6.452665 9.050459
-7.681023 -6.602338 10.810419
-8.217886 -6.503662 8.861565
-9.600460 -6.456179 8.055670
-16.171534 -3.179295 0.144843
-7.795882 -6.290265 13.528656
-10.674070 -6.073030 8.999125
-7.621004 -6.769815 13.996082
-8.237646 -6.876417 8.811364
-13.685856 -6.218660 5.831594
-12.498571 -7.779266 8.696896
-13.593456 -7.699487 6.650645
-10.046476 -6.852569 8.619783
-8.480083 -7.296895 10.675296
-10.441401 -6.614944 14.557861
-6.851975 -6.224938 12.129862
-30.668625 -6.562433 1.062673
-7.372095 -6.323824 12.395045
-39.154442 -12.094730 -1.351454
-10.495054 -5.395327 12.279505
-10.791286 -5.310148 12.380312
-25.812984 -13.093427 3.653131
-8.085838 -6.546659 14.620140
-16.674610 -2.394119 8.058043
-15.978400 -2.858147 7.519337
-8.307492 -5.814946 15.006109
-8.312009 -5.814231 15.007321
-8.078407 -6.307673 13.243103
-8.156994 -6.312045 15.713871
-9.189195 -6.372277 14.558125
-16.335705 -4.856003 10.354757
-16.814526 -4.690229 10.134005
-8.241053 -6.247521 12.708746
-8.209768 -6.247208 12.722631
-7.764221 -6.849941 13.749587
-8.518781 -6.561080 15.136441
-8.496468 -6.918360 13.567717
-15.559950 -3.156201 10.502568
-9.569829 -6.726895 15.378732
-9.371305 -6.317263 14.318837
-9.419062 -7.216707 15.891300
-7.519748 -7.074996 13.226155
-7.519700 -7.074362 13.225832
-16.159904 -2.003755 5.984986
-14.660992 -3.004328 8.394732
-13.429719 -2.533300 7.784543
-13.372515 -2.430586 7.503352
-11.419265 -3.917219 9.241003
-8.907670 -6.522809 12.204828
-26.287067 9.981613 -5.470144
-12.253611 -6.773942 15.026133
-14.393944 -1.107638 7.817934
-10.536212 -7.436784 11.374660
-10.482056 -7.388158 11.432156
-9.431432 -6.723559 13.693306
-10.223539 -6.657814 12.210155
-93.538017 23.651606 37.122887
-10.473902 -6.405120 11.470377
-12.492716 -4.616745 8.817365
-11.989683 -3.519590 9.530262
-11.988359 -3.524166 9.531609
-10.401369 -6.268643 16.202650
-9.184819 -6.873034 13.365838
-10.385227 -6.267964 16.196218
-10.408906 -6.265213 16.202408
-9.965542 -7.359004 12.311807
-10.393744 -7.066367 15.257980
-10.272879 -7.309864 13.277456
-12.217480 -7.591156 10.086225
-10.190659 -7.001495 12.857016
-9.969995 -6.835069 12.727637
-9.991162 -7.046030 12.942656
-9.933711 -6.567607 12.610790
-11.866738 -7.345330 9.625335
-12.497066 -7.430678 11.142365
-17.255676 -3.316132 17.507404
-12.326401 -6.120333 13.527670
-13.779709 -6.447721 16.940855
-9.703750 -7.100873 12.944069
-15.208386 -6.217274 11.664360
-9.638623 -7.262936 12.362435
-12.877575 -8.818504 9.013536
-9.897726 -7.632725 13.904487
-17.235237 -6.092708 11.719877
-15.134148 -7.286510 12.551757
-10.341064 -7.400021 13.138912
-15.184317 -6.882102 11.666338
-10.499804 -7.438785 13.079018
-12.074524 -6.659454 14.368191
-10.354125 -7.219872 12.489756
-65.647812 -14.618195 -5.526582
-10.474402 -7.181472 13.572989
-12.243156 -7.726974 13.402959
-14.225577 -5.851370 11.118495
-14.603281 -6.111765 12.144186
-10.931665 -7.359549 12.929758
-10.638969 -7.353246 12.654482
-16.878185 -6.299797 10.180731
-16.889412 -6.294356 10.172706
-20.341782 -8.446662 9.204716
-18.666792 -7.157147 11.787111
-12.380800 -7.139027 12.878060
-13.731785 -6.656940 14.174320
-10.757878 -7.146021 13.195681
-16.249069 -7.321145 15.039474
-41.004761 -8.999489 17.778450
-36.672901 -3.329161 26.241062
-19.863792 -6.935543 14.731865
-15.662947 -7.734636 14.744676
-19.888178 -6.976052 14.704084
-10.619678 -7.120198 13.519696
-15.242636 -6.898532 12.901714
-11.827477 -6.377820 14.808119
-21.150658 -7.127443 12.434420
-14.244137 -6.216135 13.100746
-10.730828 -7.087574 13.201694
-20.752529 -10.394600 11.363786
-12.392164 -7.246852 13.458023
-31.843775 -10.708303 8.696889
-20.654270 -8.715048 11.912342
-12.861958 -5.967578 12.626568
-14.381437 -6.759475 15.062029
-16.908321 -8.010363 13.181308
-17.174049 -8.245775 13.200414
-32.827496 -10.397436 9.586576
-18.977314 -8.261038 13.130082
-17.318398 -6.424854 11.743649
-13.115512 -7.083875 14.536932
-12.865729 -6.383469 13.907089
-12.468867 -7.315075 13.667336
-19.953997 -7.845021 11.830297
-22.504208 -7.535216 10.718067
-15.824419 -6.558713 12.243857
-18.872177 -8.068165 10.930799
-14.082249 -6.823242 14.183514
-20.805012 -7.603712 14.518186
-13.939340 -6.445615 14.942386
-22.308252 -7.621910 11.931496
-12.815683 -7.247784 13.366899
-21.901541 -7.624591 11.961397
-67.489410 -10.465234 2.040444
-22.406710 -6.449674 12.019440
-13.675794 -5.461414 11.391724
-14.564981 -6.368311 13.001617
-98.155022 -36.343956 4.378465
-12.645398 -7.581332 13.424171
-12.044745 -7.305707 15.064425
-17.600492 -7.754925 12.277403
-14.177998 -7.412459 11.898623
-12.604818 -7.383744 12.240076
-22.392874 -9.065220 10.686589
-12.612431 -7.291687 13.315527
-22.469559 -9.059937 10.650343
-25.747124 -7.427885 11.814258
-12.122610 -7.185002 13.552338
-11.837969 -5.522320 13.783591
-13.950011 -3.916215 14.344753
-18.042526 -5.974514 13.742407
-12.194798 -6.860452 13.153423
-23.847885 -6.254131 9.397749
-11.313333 -6.639635 14.830099
-11.441836 -6.438388 15.541788
-11.447570 -6.486693 15.624985
-15.641119 -9.650270 14.433619
-957.337097 -85.645149 -169.784561
-17.692505 -8.983221 11.370094
-22.745085 -9.891181 7.690872
-16.150927 -8.766110 16.325130
-12.164027 -6.767525 15.580150
-82.284195 -23.816330 10.175745
-11.842144 -8.072421 13.722034
-12.022629 -8.079438 14.165178
-14.293974 -8.535630 13.181353
-25.451580 -11.486196 7.621945
-16.434879 -8.469145 12.629637
-18.864475 -8.495621 12.559306
-14.291380 -7.291895 14.528860
-19.694633 -8.123106 11.259687
-17.381685 -8.301145 13.190865
-15.316790 -4.531320 14.203579
-12.289110 -7.355720 13.578634
-11.854629 -7.255726 13.797503
-21.395687 -8.796491 11.641073
-21.359093 -8.794509 11.652145
-22.765327 -9.072838 9.071806
-23.869701 -7.842857 10.898922
-26.200314 -11.293873 14.004584
-11.862631 -6.235957 15.340456
-33.545601 -11.099715 16.509428
-11.864115 -6.235054 15.340196
-11.996246 -6.862842 16.443539
-11.902155 -6.269522 15.396436
-11.863485 -7.836862 14.033504
-26.653255 -10.917110 12.973784
-14.234999 -7.667390 15.752029
-26.861696 -10.829103 9.973407
-31.577984 -8.630175 18.127491
-12.413322 -6.136694 16.338718
-11.986849 -5.842883 14.953113
-26.918447 -9.140708 15.365839
-15.154469 -6.711777 13.556343
-25.238651 -9.388862 13.866488
-14.867245 -5.439524 11.846006
-14.863043 -5.443230 11.848945
-17.389967 -8.364637 15.283577
-13.315689 -5.474739 11.554382
-12.932348 -6.841596 15.717108
-17.277012 -5.644619 16.421303
-17.245476 -5.654467 16.420208
-15.638387 -6.307862 15.266703
-15.426533 -6.352953 15.237793
-13.500854 -5.712086 15.441017
-22.110146 -7.643904 12.973779
-17.904615 -8.674187 12.936159
-13.069767 -7.890979 14.448274
-15.705434 -7.247947 15.457129
-15.157996 -6.815483 16.639683
-14.902045 -7.809254 16.584063
-14.898484 -7.807309 16.579245
-13.761173 -5.222823 11.763002
-15.409554 -9.412956 13.158318
-14.236887 -8.816419 13.594570
-11.951541 -7.904002 13.375848
-21.682354 -11.015450 10.469406
-12.518641 -8.803649 14.106503
-12.515265 -8.802755 14.107464
-15.135895 -9.161289 13.122054
-17.546223 -8.935947 12.615650
-19.614840 -11.087896 10.282494
-446.307465 -79.375252 -69.355965
-21.948187 -11.017757 10.747330
-21.639269 -10.916756 10.818201
-12.814922 -7.569055 15.702098
-12.121344 -6.805783 14.987951
-18.026081 -7.683669 12.621038
-12.876394 -6.251449 14.709899
-12.874683 -6.252416 14.710311
-24.008942 -10.310465 13.969794
-23.118637 -10.259941 13.994732
-23.102257 -10.251520 13.983117
-24.180075 -10.435766 13.929569
-77.335434 -21.926331 15.263500
-26.507084 -7.029483 14.198299
-24.347916 -10.239574 13.993133
-34.969643 -13.435625 -1.295829
-23.522432 -11.772526 7.055836
-23.562748 -11.946994 6.768177
-11.872149 -7.619922 13.583014
-12.273865 -7.646174 13.877369
-12.281068 -7.640666 13.870374
-24.989733 -12.777145 10.969041
-12.234338 -7.655763 13.900372
-34.304153 -13.901809 12.002453
-340.312195 -98.878151 -27.028900
-25.828854 -12.941578 9.452665
-25.574051 -12.613328 9.586700
-25.578587 -12.868822 9.542130
-30.689835 -13.387774 8.294536
-32.239403 -13.341150 12.603032
-12.328075 -8.090986 15.883015
-25.753941 -12.195143 12.147381
-12.053523 -7.017760 15.521806
-19.870419 -8.286533 13.247201
-27.702066 -11.447854 12.025539
-15.267377 -7.835436 15.130632
-21.303928 -9.007225 14.738855
-15.628278 -12.356514 15.611836
-21.575031 -6.505865 14.999750
-18.368538 -7.373597 13.450442
-14.920113 -6.516658 14.452227
-12.582740 -7.206523 15.182292
-17.670227 -5.535584 16.142105
-22.093098 -6.349148 15.834333
-17.259035 -7.447268 14.647293
-15.311602 -5.075129 11.117090
-34.036720 -8.287981 25.027222
-15.571277 -5.886247 11.598676
-14.416026 -5.552541 12.221292
-87.699059 -16.046127 30.612743
-16.369875 -7.424076 14.146707
-15.239507 -4.607869 11.225754
-24.199047 -8.779336 16.820427
-12.725679 -7.329940 13.606294
-44.891369 -14.734896 9.574235
-21.279039 -5.921129 11.587612
-21.233784 -8.950758 10.081779
-80.113342 -30.618982 1.163715
-23.963558 -10.702564 15.775703
-19.233124 -8.108603 11.903624
-99.588058 -39.384575 3.465834
-113.637726 -35.179916 2.866135
-81.249985 -21.689716 -6.012526
-361.317383 -80.308533 -36.359703
-19.259802 -7.197196 9.884100
-66.561089 -21.910007 -6.842102
-57.677895 -17.228302 5.695473
-32.343002 -10.173091 14.037185
-24.880344 -9.276144 18.118254
-169.220245 -62.453686 89.678978
-25.872952 -10.275329 19.742523
-183.602478 -67.450844 96.623962
-15.616348 -7.424196 15.066350
-19.603497 -8.477375 11.370768
-98.274818 -19.145248 -28.840591
-105.614601 -20.060555 -32.507885
-28.725048 -9.859493 17.590290
-28.768547 -9.841707 17.649687
-60.953552 -6.208653 -11.902351
-32.551414 -6.038554 14.431862
-32.485359 -6.053561 14.452387
-17.469372 -8.319135 13.585795
-21.356354 -7.810461 11.942769
-16.863546 -7.552562 14.304571
-29.268225 -9.703776 1.669451
-16.640167 -6.413928 12.230326
-20.558680 -7.566754 13.706879
-24.256386 -8.337796 10.357018
-20.588476 -8.340177 13.365034
-24.590488 -12.902000 13.831974
-17.941811 -9.683101 18.479984
-80.917969 -26.098953 -0.331533
-42.026829 -12.291984 0.043840
-19.207903 -8.388914 16.132458
-18.236319 -8.029894 14.527959
-24.290569 -8.673323 10.571516
-16.802702 -5.664064 12.104229
-70.493378 -33.501549 -10.671098
-15.865715 -8.584599 15.257145
-15.864907 -8.587072 15.258403
-27.571499 -12.093919 5.770516
-33.162186 -12.071856 6.556870
-30.141209 -10.109283 3.310344
-32.227642 -6.820650 4.075887
-37.355476 -13.497892 15.894581
-18.987202 -7.441617 15.793243
-19.207037 -8.240961 14.747395
-42.334713 -10.464869 7.251569
-23.321880 -6.957141 10.020389
-22.453342 -9.617300 13.054719
-20.905443 -7.510041 10.128923
-22.408125 -7.341062 8.187901
-23.563881 -9.578793 12.847195
-22.106205 -7.383740 8.572847
-24.175636 -11.003152 13.288118
-16.594507 -8.663711 13.395697
-38.483742 -13.468777 5.326595
-38.156319 -10.289392 8.740482
-17.764267 -7.988465 12.732075
-21.695957 -7.373408 10.081318
-19.519348 -8.192299 13.771175
-17.271965 -8.022203 12.144863
-31.106750 -10.234883 22.098696
-17.701180 -7.733158 15.542864
-17.733990 -8.060952 13.060225
-17.664289 -7.737771 15.532099
-21.835320 -7.687049 10.999283
-17.699667 -8.068951 13.075945
-27.817980 -9.976007 20.932138
-17.727949 -7.885050 12.721560
-17.927811 -8.261126 12.028842
-38.469028 -10.046772 8.901039
-17.880472 -8.024935 12.422083
-21.141483 -7.575670 10.213484
-349.148926 74.702789 -49.266968
-43.829636 -13.578934 12.508698
-224.484131 -22.295622 -1.331153
-16.579817 -8.930973 12.170908
-17.957216 -5.864339 12.006831
-17.935347 -5.877119 12.020777
-17.957216 -5.864339 12.006831
-23.343056 -8.864300 12.409323
-431.701080 -97.903587 167.018265
-38.422596 -12.167706 12.682099
-17.429689 -8.544594 12.267411
-17.445629 -8.546143 12.258654
-17.548285 -8.557344 12.310369
-17.538691 -8.558983 12.317255
-18.171747 -8.218594 14.044872
-17.553911 -8.578461 12.243902
-19.564573 -8.431974 13.007294
-17.129108 -8.348656 11.991138
-31.563179 -5.911175 0.275028
-17.416571 -7.015940 14.328861
-17.001482 -5.533190 11.595001
-26.474665 -5.412273 1.747644
-18.806177 -7.959731 12.750889
-19.718084 -8.301996 13.668972
-19.309086 -7.591952 15.717246
-17.906143 -5.706295 11.720922
-17.943773 -5.696050 11.695856
-18.776270 -6.232272 12.117554
-19.961443 -8.143567 12.333695
-19.920023 -7.491039 14.857383
-34.448616 -5.349630 14.656441
-41.832203 -1.613066 22.766928
-17.824684 -5.606467 11.902223
-20.187916 -9.609720 14.654144
-31.452351 -7.499611 17.971163
-26.393116 -11.146483 14.794141
-17.273876 -8.340217 13.348746
-21.047981 -9.446464 15.222765
-17.055241 -8.096602 14.087751
-17.271254 -8.202182 13.829489
-19.958210 -9.635992 13.355365
-26.951660 -9.866652 12.846953
-26.898663 -9.858684 12.861071
-19.812197 -8.819325 14.792381
-27.224529 -9.753305 12.558483
-16.921036 -8.356083 12.581401
-17.319504 -8.050300 13.216195
-27.436142 -9.563602 12.568569
-18.960306 -6.152554 11.399201
-17.501303 -6.763026 15.965470
-19.827011 -7.317166 14.939670
-20.803946 -7.465000 13.423615
-20.988695 -7.479689 13.270310
-19.171322 -7.302620 15.273653
-20.329350 -7.725525 14.854373
-26.893366 -11.193805 13.087236
-16.938705 -7.803156 13.265829
-27.478725 -8.603024 4.414687
-21.441236 -7.125066 10.070276
-18.020180 -7.366777 14.992151
-19.099072 -6.132626 11.448048
-125.079155 -30.113110 -30.469357
-25.184629 -9.911391 17.326906
-29.967117 -9.633230 6.614379
-20.991343 -7.984282 13.767947
-25.791569 -8.193680 14.804437
-19.652657 -8.051285 13.617551
-19.453880 -7.221169 15.149222
-29.531178 -8.336515 5.795751
-28.845127 -6.832644 9.304657
-19.128361 -6.488820 12.423056
-21.079237 -7.181962 12.497835
-25.900187 -7.940285 17.314766
-17.672699 -6.171321 14.028264
-19.321766 -8.327068 15.160202
-19.902393 -9.191410 15.971061
-20.029263 -9.231874 16.001238
-26.325666 -12.942144 16.585896
-18.931038 -5.573414 12.145362
-20.622143 -10.639441 11.474909
-21.459007 -10.944387 12.080012
-28.444248 -10.618755 13.248607
-20.334274 -7.949319 17.936386
-21.367090 -9.883643 13.456404
-37.824959 -12.069694 14.137884
-23.938244 -8.981703 18.801695
-21.955458 -5.976062 11.688850
-28.179266 -10.878998 13.235807
-19.019363 -8.966313 14.877564
-18.945606 -8.870042 14.752223
-29.471615 -12.519828 16.629557
-27.861740 -11.982740 13.021357
-30.606190 -14.950804 17.414524
-26.210623 -13.284365 13.722126
-19.956264 -10.335964 15.355842
-20.903875 -9.803764 13.713356
-21.389566 -7.688079 13.173982
-22.404799 -10.246120 12.962206
-21.741386 -10.133205 12.427940
-22.986822 -7.479186 13.324278
-22.001122 -9.571677 13.500289
-20.425884 -6.714485 12.630482
-21.443287 -7.174542 12.476740
-21.598063 -10.600503 13.336388
-24.763573 -10.469622 13.844004
-22.488777 -7.477520 12.556120
-74.420860 -9.590477 2.396664
-21.898026 -7.043074 14.717117
-21.317606 -7.391540 13.381169
-52.185982 -10.945009 22.477318
-67.585747 -23.176926 4.561989
-18.200037 -8.677359 14.887539
-19.135935 -8.070289 15.731685
-18.739847 -8.355068 13.699389
-25.618834 -9.455915 10.369631
-20.155609 -7.788424 14.975136
-18.752226 -8.175372 13.815794
-19.681427 -7.798787 16.409952
-28.570536 -9.448599 19.027081
-20.859852 -7.796847 14.676888
-18.941181 -7.785271 15.944893
-19.034176 -7.776935 15.952720
-19.001911 -7.742919 15.971336
-18.990314 -7.743002 15.981209
-22.758310 -9.219704 16.582737
-28.811295 -9.793361 20.591995
-26.139614 -10.664857 18.019344
-236.643768 -30.163231 -10.738482
-23.421972 -7.330758 11.545988
-43.253399 -8.788010 1.499362
-19.807302 -8.217269 16.713652
-19.783405 -6.341237 10.612258
-21.233971 -5.450615 8.632526
-29.396158 -9.125309 17.709579
-21.241085 -7.679435 15.096287
-20.330362 -7.740326 16.358206
-21.491766 -8.004045 15.227094
-18.991819 -8.525356 14.050009
-19.219322 -8.477276 16.647921
-20.711304 -8.504910 16.366184
-21.891075 -9.328930 13.200815
-21.771292 -10.058809 16.253906
-65.460876 -29.849514 -10.968935
-26.327503 -9.148012 13.368160
-49.032227 -8.333339 8.385502
-57.839649 -8.221705 9.739665
-56.897606 -8.189563 9.923731
-26.575590 -11.138826 9.784573
-64.320557 -8.705879 8.065208
-20.864735 -9.116070 16.266035
-49.777504 11.369026 -12.046528
-20.131371 -8.654867 15.024902
-30.484716 -12.226819 10.384953
-21.988861 -8.210773 16.457266
-21.851662 -8.173946 16.479877
-24.571207 -8.038817 17.915846
-94.998123 -5.143905 15.340254
-70.679718 -6.376594 15.335390
-95.369644 -5.156966 15.371868
-74.923676 -6.113959 15.262211
-124.737915 -11.073722 41.913582
-31.701584 -11.412806 10.023182
-19.870529 -8.394531 13.892054
-25.152222 -8.068963 17.778008
-138.853882 -40.256008 1.381159
-22.315865 -7.198711 16.496397
-311.755554 21.475990 -29.737158
-40.856388 -6.848540 -1.571152
-20.309519 -7.888566 15.434135
-20.313711 -7.892156 15.436883
-49.280334 -11.825703 2.407215
-21.872381 -7.962352 12.746995
-33.776711 -14.375125 9.126554
-24.294964 -8.948494 16.464365
-30.025858 -7.383620 17.189400
-28.702435 -7.407716 7.889278
-25.266806 -8.499029 14.262796
-23.380650 -7.509105 10.549681
-19.309822 -8.309475 13.154943
-21.722754 -7.098744 12.739405
-25.111757 -7.374189 16.677082
-30.604851 -7.029190 10.996611
-23.057667 -8.492522 13.781339
-20.834248 -7.491022 12.794186
-32.260460 -7.808574 14.392119
-302.683258 -90.373451 -148.045380
-25.028553 -7.870617 11.585783
-32.201180 -6.796651 8.761472
-20.189819 -8.131412 13.174589
-21.907444 -9.261467 14.310486
-20.578367 -9.157645 13.055345
-25.936361 -11.611196 11.338573
-19.531231 -7.697967 13.109422
-26.071798 -10.613441 9.753672
-32.101486 -14.066816 14.820286
-21.439362 -8.876095 12.023666
-22.335718 -8.779546 12.299753
-28.284546 -6.162332 4.113547
-28.409760 -6.138986 3.997534
-27.196930 -9.406558 9.663666
-22.443708 -8.314464 15.210814
-30.622921 -8.722785 10.037843
-847.127014 -14.232349 41.456844
-48.782124 -4.863342 11.414192
-29.362640 -8.007062 9.822563
-29.542860 -6.020698 20.322489
-25.845970 -7.579298 11.524510
-19.173281 -7.853373 13.817842
-27.567640 -6.910039 6.825833
-21.206188 -7.710226 12.159865
-21.969616 -6.183847 12.015850
-34.836090 -11.346491 14.190282
-358.760071 -58.106190 -21.448896
-21.804039 -6.269682 11.442599
-38.453209 -5.257772 -0.873378
-23.668575 -7.976547 12.111177
-19.284538 -8.409767 13.643656
-45.515297 -8.827574 2.454703
-38.645508 -12.339617 4.234217
-26.959660 -8.128355 16.068718
-21.981667 -8.141630 11.965383
-34.002380 -8.253973 4.529876
-44.314865 -9.143518 -4.533381
-32.061981 -5.104313 7.137884
-41.532227 -8.188347 5.381009
-41.578438 -5.001105 -0.053895
-24.684896 -6.286038 14.700593
-34.050999 -8.236992 5.506460
-41.072617 -8.765890 -0.977381
-24.236217 -8.097439 11.299041
-19.975401 -8.182983 14.762081
-20.215218 -8.187807 16.554594
-20.216255 -8.186861 16.554331
-20.219286 -8.188256 16.554663
-20.216511 -8.185462 16.553453
-20.214863 -8.186255 16.553360
-20.216255 -8.186861 16.554331
-23.204077 -8.496315 14.539469
-27.713741 -7.600408 7.266521
-22.754362 -8.163008 13.186069
-22.756502 -8.162914 13.185458
-23.374229 -8.294051 14.258209
-23.410580 -8.431603 11.577807
-23.378042 -8.410366 11.527129
-23.865526 -9.841943 10.989038
-23.072594 -8.227020 11.431345
-21.955761 -5.792432 11.209558
-24.644432 -7.754531 10.098004
-30.811554 -5.360423 4.119371
-24.038319 -9.777529 16.455999
-235.199783 -76.016930 -131.250351
-27.134167 -8.960536 9.466797
-23.460388 -7.281679 13.501918
-54.569702 -11.323650 -5.649040
-29.093311 -7.708383 7.665425
-28.249744 -8.564049 8.718963
-22.486856 -9.893063 12.270112
-31.505293 -11.321270 14.442297
-22.209864 -7.422059 13.075885
-22.920418 -9.976225 13.274698
-23.801287 -6.856835 13.916759
-22.476274 -9.272449 13.307558
-21.650232 -7.831028 13.244328
-21.644596 -7.796582 13.206106
-22.919867 -9.422706 12.471758
-22.885590 -9.420799 12.490358
-22.872898 -9.385403 12.522148
-22.928926 -9.431192 12.458965
-22.392141 -8.123057 12.389952
-22.887953 -7.818974 11.703106
-22.560669 -9.570628 12.917131
-28.471140 -8.353123 15.750734
-25.057011 -4.909280 11.946390
-22.113579 -8.779838 13.173841
-24.255693 -7.843680 13.554656
-25.046150 -7.636961 12.477936
-22.138617 -8.043951 15.674548
-25.787874 -6.800958 12.675774
-21.966969 -8.161844 14.111984
-23.047852 -7.604624 15.234898
-27.892736 -7.811651 9.404866
-368.719208 284.858398 -472.495850
-24.690308 -7.767390 13.001115
-124.293861 -18.158438 -37.679726
-24.214457 -7.140028 13.152676
-166.827087 63.570518 -118.656113
-24.540051 -7.640269 9.890621
-25.111454 -8.914787 9.662436
-25.101534 -7.448031 12.632715
-27.315298 -6.759412 10.841259
-24.094116 -8.535589 12.285191
-46.085419 11.452319 -0.650460
-21.632208 -8.291781 12.613812
-25.821314 -7.803502 12.444401
-26.240248 -8.652634 9.388231
-22.604364 -8.614441 15.047155
-22.604494 -8.614190 15.046959
-28.568054 -7.788342 6.559677
-24.879642 -7.106218 14.196264
-96.366241 -8.179060 -21.928627
-30.022261 -8.714153 10.463184
-29.358707 -5.631093 9.597097
-29.272722 -5.659710 9.644444
-55.423622 -2.897789 -18.653532
-27.994453 -8.594260 12.805660
-93.918816 -7.961172 -41.564903
-26.825716 -6.293995 12.697865
-26.871082 -6.284826 12.692108
-25.751011 -6.723719 12.092621
-22.984341 -7.684689 13.382187
-24.361343 -8.995457 14.286775
-29.134670 -9.465853 10.786263
-27.914642 -7.516018 13.447863
-21.349268 -8.028656 14.587193
-21.354046 -8.030133 14.585086
-21.349422 -8.030476 14.587811
-23.795536 -7.804954 15.338614
-23.788713 -7.811028 15.343561
-23.785368 -7.824620 15.355320
-21.511288 -8.089195 14.216832
-28.344341 -8.583138 8.539282
-23.868389 -8.482225 13.448370
-32.300800 -10.590228 10.405867
-23.506670 -7.686654 15.098147
-25.384928 -6.970310 13.871175
-55.768654 -7.307564 -8.150167
-159.088135 0.496805 -76.562912
-32.464470 -7.028607 4.370972
-26.008907 -7.727254 14.583673
-26.640591 -7.775035 14.616346
-327.959961 -31.547005 -137.253998
-31.145111 -7.846467 9.124088
-23.958040 -7.967215 15.302816
-29.122173 -8.844891 11.047400
-24.711882 -7.963766 15.913958
-34.463398 -7.814079 5.139068
-26.173172 -7.986989 15.130449
-26.176065 -7.986036 15.130374
-26.322807 -7.928398 15.102814
-25.314215 -7.631858 14.483311
-26.111006 -8.016222 15.146031
-32.422150 -8.288345 6.575975
-30.676504 -7.514734 13.934045
-82.538834 -11.895181 -23.106792
-24.674347 -8.279228 14.887758
-24.687075 -8.276072 14.885554
-26.232533 -7.104260 13.578671
-24.779966 -8.333529 14.992221
-23.437658 -8.134204 14.917565
-23.436222 -8.133669 14.917508
-27.481646 -7.722538 13.103212
-65.319275 -9.618695 4.671381
-42.014626 -8.458751 2.580476
-24.431940 -7.989811 14.129973
-41.935619 -8.452450 2.616670
-257.493591 2.395998 -119.619675
-23.127502 -7.620924 13.755288
-41.557236 -3.245183 -13.933767
-23.716665 -7.883076 14.028978
-25.732449 -8.237822 15.283756
-44.603172 -1.057323 -22.627033
-28.240982 -6.914275 12.725723
-29.753567 -10.069731 11.901740
-38.923382 -2.555670 -24.140743
-24.461767 -8.520832 14.204901
-24.466917 -8.520064 14.203194
-39.376133 -3.511168 -21.249382
-24.283346 -7.432101 13.967906
-27.039436 -8.058396 13.340651
-24.266596 -8.134747 14.120917
-34.356636 -6.129508 9.165069
-30.357000 -8.006918 11.985508
-66.173706 -7.701200 -26.480457
-27.703060 -8.855404 14.374378
-24.220713 -8.035119 14.099702
-47.250252 -7.557900 22.864607
-47.299942 -7.551472 22.865608
-24.937738 -7.992777 15.180737
-23.885126 -7.470886 15.330493
-23.038551 -7.655422 13.764336
-98.965576 -5.554909 -10.640889
-25.265461 -9.282185 14.903456
-35.832695 -8.071982 15.170238
-23.529387 -7.622300 13.921653
-24.045345 -7.402118 13.341280
-27.499706 -9.198672 14.816341
-28.625212 -9.444183 16.738062
-25.112680 -8.391652 15.375658
-24.902882 -7.710644 13.652376
-26.741123 -8.250254 15.198588
-24.929483 -6.425051 12.405480
-25.796663 -9.308409 13.629286
-24.573469 -7.613440 13.187267
-29.929935 -0.693331 5.412844
-24.466698 -8.028188 14.795500
-34.226379 -2.075373 8.528397
-73.051071 4.280657 4.004021
-25.716608 -6.880461 13.447606
-50.022255 -2.123062 3.961865
-25.391304 -8.319010 14.686826
-25.624285 -8.233251 14.638585
-24.687895 -5.096973 10.783828
-24.654615 -5.130607 10.832775
-57.909290 15.189318 -9.435810
-24.703049 -5.092199 10.861341
-25.932865 -4.865987 11.275848
-25.982718 -3.007916 9.256108
-25.878571 -9.029578 14.777257
-25.144733 -7.405035 13.755784
-25.522148 -7.665259 13.037843
-31.282587 1.924376 4.732188
-51.279125 11.035528 -6.658459
-25.272476 -5.719292 11.289963
-27.585587 -5.833149 13.695045
-25.875574 -8.665009 15.114404
-25.870953 -8.665993 15.115398
-28.067129 -8.062212 15.408880
-29.069105 -7.340237 12.451746
-37.860897 -5.001722 6.342806
-39.888824 -4.481839 5.015959
-68.475983 4.958920 -8.639402
-27.180647 -7.254752 13.010019
-27.358028 -7.660661 13.266287
-25.956064 -6.999738 11.974332
-25.950808 -7.001698 11.978186
-47.562416 -1.255991 4.982718
-50.369465 -2.165785 -18.067482
-28.043201 -7.054571 13.383812
-28.828508 -7.399929 13.002305
-27.108545 -7.062498 12.981368
-28.537663 -7.054763 14.273361
-34.373299 2.953836 4.371248
-31.226706 -5.063197 12.792757
-37.150608 -2.829942 10.219031
-29.419432 -7.585423 9.967955
-28.774534 -6.639503 14.713483
-33.551067 -5.376471 10.433284
-29.231812 -8.462978 8.965318
-31.562277 -3.927655 11.741204
-54.702934 3.278756 16.531216
-32.779789 -5.471187 13.403198
-30.851051 -7.323070 13.997709
-71.602234 7.162250 5.620348
-27.525114 -6.720124 12.957951
-31.102909 -7.512883 11.933851
-26.476110 -6.366098 15.763878
-27.043097 -6.644363 14.858546
-34.971909 -5.835352 7.903139
-31.312054 -5.897050 11.174919
-30.520346 -6.808460 12.807653
-27.536903 -6.453969 14.537035
-25.750854 -6.054365 15.331782
-30.704453 -3.996687 12.823236
-24.743582 -7.389949 10.492196
-28.782738 -6.249081 6.735359
-28.536314 -6.422837 9.088519
-31.563868 -3.148110 9.400135
-44.368076 8.026876 -2.662893
-28.609365 -4.390451 11.704552
-37.039566 4.935301 2.505642
-78.528397 -42.126305 -74.103088
-38.531200 1.110940 -1.260042
-28.801352 -4.953609 8.343096
-28.607225 -5.584886 11.012913
-28.994379 -6.301615 12.940784
-30.868977 -4.638532 9.158024
-35.054192 0.750124 8.887323
-29.596182 -4.672207 7.429659
-28.583363 -5.653214 7.859563
-28.712004 -5.585506 7.748533
-29.215542 -5.147472 2.739665
-28.528498 -5.702245 7.945714
-26.879707 -5.824175 12.365318
-26.734999 -5.925789 12.489534
-29.659697 -1.598142 9.389131
-29.328257 -2.019196 9.755299
-29.653399 -1.605962 9.393859
-57.872353 -23.073179 16.797918
-28.223907 -5.613925 10.020329
-27.908201 -5.846042 11.285063
-27.908894 -5.844065 11.284571
-26.088448 -4.827994 7.933468
-27.791077 -6.049920 11.352641
-26.399572 -5.421401 10.455471
-12.274462 -8.479848 3.171145
-22.482691 -6.964868 9.535202
-28.629885 -1.714921 11.489960
-28.847116 -2.995415 9.643190
-26.380331 -4.673140 11.844537
-26.505512 -5.435767 10.760214
-26.543716 -5.278836 9.385477
-25.682076 -6.834027 6.177299
-25.642738 -6.890082 6.361320
-26.566467 -5.257060 9.408536
-26.523748 -5.268872 9.402263
-26.643734 -5.247427 9.262651
-26.734913 -5.240452 9.535286
-28.637718 -6.033613 4.183543
-26.719934 -5.195486 9.528065
-26.318415 -5.310204 10.885310
-26.317146 -5.314893 10.889166
-33.366989 -10.342951 -3.325087
-26.323864 -5.331787 10.909164
-26.687599 -3.652742 9.914481
-26.381123 -6.057748 12.666768
-26.398495 -6.091035 12.740997
-26.628994 -4.701255 12.102566
-32.008827 -0.746250 -1.615593
-31.948971 -9.717957 -1.822459
-26.350368 -5.311360 10.632747
-26.343161 -5.286614 10.607040
-31.592508 -9.879428 -1.009264
-27.038046 -4.584811 11.611168
-26.061295 -7.306547 8.475531
-27.061392 -3.503163 9.487095
-26.312153 -5.243909 10.518270
-27.067371 -3.507655 9.494239
-26.352371 -5.275782 10.576406
-26.322691 -5.235221 10.516871
-30.749920 -7.554510 2.950998
-31.066462 -7.513322 2.495266
-30.492577 -7.589245 3.091358
-30.915142 -7.538300 2.493828
-27.486921 -3.153536 11.066874
-30.893654 -7.542021 2.532192
-32.840298 -1.422918 -15.497994
-26.585991 -3.818949 10.140962
-26.545992 -3.915393 10.314682
-26.124676 -5.914874 11.911539
-26.156590 -5.925134 11.923378
-26.107372 -5.895179 11.902934
-26.147072 -5.900438 11.892942
-31.859142 -2.544837 3.087949
-25.570887 7.631930 -9.822803
-28.875090 -2.508306 10.285514
-27.627087 -3.323625 12.331340
-26.232706 -5.223492 9.154864
-27.250818 -3.581063 9.128028
-27.262714 -7.366330 -0.834283
-28.296022 -3.613111 7.017444
-26.973263 -4.013977 9.301950
-25.783466 -6.752387 6.510871
-22.715616 -5.095514 5.101644
-25.781586 -6.748475 6.501981
-25.987774 -5.037325 9.643497
-26.244169 -5.157382 9.159463
-26.296780 -5.116745 9.028250
-22.759518 -5.237511 5.101133
-22.740648 -5.208186 5.028439
-22.709841 -5.317353 5.038671
-26.320551 -4.122315 8.596317
-27.058140 -3.969921 9.403898
-26.171186 -5.193877 9.154594
-27.560068 -4.960180 11.242109
-27.557814 -4.970025 11.251259
-28.234055 -6.185789 11.667984
-25.620279 -5.262625 11.613877
-64.572670 -10.669203 -22.357792
-25.594540 -5.252554 11.393263
-26.222408 -4.798584 8.713408
-25.942278 -1.935355 7.340542
-40.910393 -1.779906 -49.380600
-37.572735 -2.814582 -38.586956
-40.288677 -9.870875 -7.947371
-26.869707 -4.141571 10.432854
-61.932251 -12.583506 -27.345974
-46.195152 5.897786 7.854037
-37.101032 -8.933270 -32.857670
-26.409708 -4.386327 9.151224
-26.458241 -4.481180 9.173158
-24.850214 -5.148592 5.244891
-27.072884 -4.731338 12.213886
-25.979137 -4.920329 12.229357
-26.075502 -5.284544 13.180962
-26.074066 -5.285974 13.181232
-25.783976 -4.901863 11.370366
-26.079012 -4.233239 11.144176
-37.186722 -9.132519 3.967296
-25.764271 -3.009983 9.708006
-25.448566 -3.689825 10.787939
-25.749533 -3.014862 9.695735
-25.085756 -4.368161 12.128077
-25.634129 -4.209014 10.206399
-26.765224 -3.851470 10.424932
-25.635698 -4.196992 10.200209
-37.935486 4.392338 7.811384
-25.632635 -4.231700 10.236676
-37.858452 4.289114 7.918214
-41.086964 6.833499 11.907066
-26.549007 -3.925672 10.332114
-24.903532 1.065837 -4.521073
-24.899122 -2.033586 5.959977
-27.334812 14.268252 -23.533855
-25.053574 -4.933149 10.200848
-24.970242 -3.015872 8.543330
-293077.343750 107193.335938 45708.230469
7.714863 8.479676 -45.157280
-25.321980 -2.684773 7.549417
-26.171389 -3.670326 9.698684
-26.238152 -3.853100 10.054643
-25.049728 -3.915901 10.342491
-26.390806 -3.291128 9.802618
-26.462616 -3.257503 9.812807
-29.263529 -7.765939 7.796102
-26.394091 -5.975668 6.575562
-144.607269 183.306046 -213.912018
-28.489883 -5.374733 6.332357
-28.215887 -2.037495 5.544486
-28.994755 -3.318372 4.983323
-30.074190 -2.027016 4.373388
-4.195881 -2.153906 -11.470827
-21.090778 5.475443 -7.354491
-24.229860 -4.929748 4.697317
-13.538788 -9.683002 0.628816
-31.630783 -5.535460 -38.109673
21.817154 -15.873091 -19.279184
18.598209 -15.031084 -17.563179
93.761063 -20.601576 -17.191509
33.335941 -9.615998 -34.191795
27.058537 -8.881627 -29.743809
5.414036 7.367939 -18.280579
-23.267633 -1.292354 4.597396
-23.267544 -1.301695 4.609729
-62.550716 17.982531 54.956203
-62.547050 17.989613 54.942608
-22.446230 -1.042527 3.836876
-22.457466 -1.058866 3.856173
-22.545452 -0.944320 3.425131
-22.440386 -1.036644 3.835560
-22.453312 -1.053721 3.851935
-22.470066 -1.065650 3.839435
-22.934553 -1.071783 3.851253
-20.137215 -1.284145 3.695591
-20.162640 -1.296656 3.686228
-22.482519 -1.178634 3.295934
-21.470650 0.063959 2.994517
-19.284399 -1.965547 2.261540
-19.355455 -2.007589 2.301622
-19.021168 -2.031833 2.293205
-17.701494 -10.853589 -6.137105
-21.743834 -4.109528 2.467548
-25.015287 -0.841993 2.151905
-25.765865 -1.322925 2.118444
-19.594999 -7.158284 -10.374779
-22.762299 -7.032670 -10.133859
-17.334267 -7.926098 -12.514478
-22.784842 1.034009 -3.231421
-24.200930 0.004011 -1.700838
-24.168430 -0.004292 -1.708020
-32.193550 -5.345069 2.411557
-36.694092 -3.330274 3.581605
-26.709002 -7.009446 0.936357
-23.240242 1.116987 1.312087
-18.321062 -1.009425 0.242802
-23.271021 0.830345 1.149038
-23.856014 -1.129117 1.967546
-18.864250 -0.848977 4.142068
-23.321665 -2.070646 2.365074
-26.067972 -1.511810 1.984603
-25.047485 -1.600334 2.058953
-19.029581 -2.745514 0.884436
-40.222141 -1.577893 -0.673240
-39.105179 -1.340377 -0.789134
-35.988556 -0.169145 0.579945
-25.369406 -0.552255 0.930957
-25.362118 -0.558561 0.941109
-12.616278 8.928490 -3.542172
-25.355957 -0.222819 0.994883
-25.100636 -0.758230 1.209273
-25.099773 -0.744123 1.200237
-23.458769 -0.510560 2.198934
-23.424948 -0.449694 2.119128
-23.464581 -0.517601 2.204467
-25.098911 -0.729819 1.191085
-25.098959 -0.705182 1.174285
-25.255514 -0.616347 1.214680
-24.147676 -1.113972 1.475414
-25.198921 -0.623937 0.847061
-23.903593 -1.089911 1.381485
-21.589060 -0.041522 2.128024
-20.499199 0.027304 2.662987
15.479848 -55.746517 64.092941
18.145950 -56.499138 65.268456
-24.010319 -1.280293 1.376762
-23.293732 -0.371476 1.896846
-24.760183 -0.662722 0.184733
-9.096022 31.860981 -21.333120
-6.416365 36.452961 -24.335419
-23.966347 -1.170628 1.172267
-23.814175 -1.114312 1.064570
-23.834606 -1.368788 1.741514
-23.114189 -3.873131 3.167149
-23.241026 -2.123868 3.304855
-23.946085 -1.052579 0.216827
-24.094622 -1.026763 1.261141
-24.101030 -1.034546 1.261302
-24.063286 -1.043997 1.261507
-23.303963 -0.299114 1.817288
-23.165716 -1.418153 2.169963
-23.678144 -1.000747 1.125736
-23.483168 1.297504 -0.569845
-23.482433 1.296682 -0.567559
-23.854288 0.197164 0.500508
-24.013807 0.122952 0.527795
-21.052326 0.286537 1.907982
-23.742744 -1.047657 1.596733
-23.759758 -1.073509 1.611532
-24.357878 -0.174592 0.618062
-23.559910 -0.819798 1.528746
-23.738363 -1.050359 1.607097
-21.561960 -4.361521 1.180425
198.788818 188.905029 -37.699356
-22.492855 0.120767 -0.403275
-22.503941 0.102787 -0.385260
-22.779696 -0.341201 2.648674
-22.329578 -3.400374 2.814117
-23.294207 -1.437116 1.758067
-23.281715 -1.426985 1.748585
15.088306 32.678818 9.991452
-20.266068 2.782518 -6.763058
-23.666004 -1.096327 1.039279
-23.568560 0.286878 -1.394236
-23.410019 0.488260 -1.639452
-24.053438 0.567707 -2.309611
-23.373201 -1.242272 1.793278
-22.730921 0.289305 -0.475002
-19.943176 5.063558 -5.252329
-21.979029 -2.178154 1.628404
-13.844845 -6.759959 2.107651
-19.461460 -4.193788 -0.235854
-22.464090 -1.495323 1.334719
-14.914173 1.366119 -2.377107
-14.957277 1.343131 -2.356061
-22.321053 -1.686349 1.953252
-22.100424 -4.812226 6.126788
-19.741398 -0.845344 1.582833
-21.776751 -3.056705 4.501429
-16.848543 -0.012317 -0.116277
-17.794601 0.533782 1.357891
-12.929972 6.063678 -2.458365
-19.478750 1.823344 -1.284213
-19.771528 -1.621113 2.876237
-22.282394 -4.250896 4.000739
-10.972129 1.778675 0.906447
15.226837 -25.698677 6.563828
-4.626190 -6.450432 8.808491
-21.834015 -4.952486 4.874033
-21.414606 -2.282219 2.851448
-18.467642 1.057835 1.738061
-21.943819 -0.663416 1.637950
-16.924034 -7.193994 4.936915
-21.526815 -1.878650 2.061002
-21.551981 -4.438216 3.455934
-17.466787 3.185317 -2.868820
-16.455830 -7.513156 5.350567
-20.370560 -5.395492 5.504612
-21.394016 -2.188524 2.775983
-21.454491 -1.879297 2.180205
-21.442659 -0.707755 1.132895
-21.929962 0.513971 0.584194
-22.232447 0.747941 0.280223
-22.284119 0.350838 0.573197
-16.623867 -6.383723 2.740657
-21.069286 -1.207599 2.449622
-17.207895 -0.431310 12.522449
-21.016193 -1.139288 2.376387
-18.225843 -1.667166 8.127066
-21.015800 -1.139072 2.376278
-20.923206 -0.862896 2.023708
-21.035654 -0.915404 2.063974
-20.794510 -2.792245 4.112059
-20.819227 -0.785229 1.746791
-21.097317 -1.023844 1.761008
-20.740341 -0.857437 1.697846
-20.742054 -0.858524 1.698279
-20.088867 -6.012977 5.787595
3.531425 -11.098214 13.336632
-17.829502 -6.136142 3.834893
-20.436527 -5.634836 3.846881
-20.921368 -1.451272 1.846651
-20.952160 -1.462282 1.845939
-21.314110 -1.665107 3.573761
-21.334635 -0.574445 2.149563
-20.516417 -0.977732 1.558788
-19.868664 -0.140230 1.318175
-20.883879 0.150573 0.839057
-21.480387 -1.698867 2.669474
-13.270030 2.889145 2.964228
-13.050201 3.005256 3.034908
-21.306278 -1.323174 1.825148
-21.305607 -1.322819 1.826202
-21.371838 -1.384021 1.913520
-14.748973 3.591931 1.185866
-10.599140 6.843831 1.091463
-20.789982 0.334909 0.603274
-20.284952 -1.598071 1.413924
-14.988470 3.197844 1.457651
-18.334036 1.142488 3.753811
-21.477079 -0.871670 2.832592
-15.615873 2.320354 1.962327
-22.893623 -1.234972 1.977073
-18.214176 2.297169 -0.962884
75.004036 215.006714 -2.161250
-17.112631 -1.476040 0.812069
-17.284832 -1.435001 0.768298
-17.286182 -1.423426 0.710629
-77.977997 -37.051765 23.610094
-81.840767 -37.568985 23.204559
-12.322453 -2.248106 3.416052
-17.237484 -0.318081 0.197494
-15.779829 1.978209 2.455623
-19.577431 0.736879 0.375503
-20.239956 -3.428915 2.430125
-14.447706 2.622285 2.823205
-19.834494 0.708684 0.300572
-17.266575 1.661698 1.933845
-18.900940 -8.165448 8.606527
-21.694412 -10.303402 11.401568
-22.974792 -3.414768 -9.707981
-22.061081 -2.887244 -8.559892
-22.691299 -2.868687 -8.772486
-20.746294 -2.410951 -8.325874
-22.320911 1.125001 0.572283
-12.313376 1.368300 2.037464
-19.056496 1.480775 -0.991172
-18.600548 1.535780 0.121315
-17.709475 1.684407 0.174109
-17.060499 3.721550 1.053798
-19.618402 2.135054 0.811720
-16.227135 4.964667 0.763752
-17.387529 3.478986 0.341364
-13.674126 2.131423 1.783787
-19.915609 1.221034 -0.272018
-13.917372 2.000510 1.808094
-17.832239 0.144755 0.636467
-9.244970 1.879382 2.409332
-18.370243 0.525145 -0.165806
-20.401438 0.449509 -1.314050
-14.114840 1.096194 -0.340562
3.940662 15.280212 -6.770606
1.122284 13.506456 -6.186305
80.362930 28.253597 -30.400240
63.209015 1.207762 -19.187954
63.239021 1.223425 -19.261454
58.885342 -0.405248 -20.064312
63.194710 1.197568 -19.176125
59.660225 0.339012 -20.177732
60.267960 1.058883 -20.461142
63.190918 1.193723 -19.182358
64.251320 1.792564 -19.719061
29.733063 21.358240 -1.194710
-17.260860 2.057909 3.509665
-16.290915 1.559857 4.733129
-18.452362 1.779723 -1.396475
-17.406300 2.885608 -0.591315
-11.955222 10.172816 -4.806924
-17.429571 3.430062 -2.424905
-20.222099 2.074162 0.546910
-18.569065 1.026682 -1.784256
-19.766003 1.183494 -3.951405
-20.526114 0.096015 -1.297776
-17.549438 3.571309 2.435341
-10.021277 2.073088 -0.858275
-20.549543 1.657102 0.754806
-20.548706 1.658339 0.755081
-17.773560 2.857147 1.561275
-14.529865 5.638017 2.680435
-20.065880 1.693676 0.922945
-21.546776 -258.603394 -178.021606
68.177544 -54.623573 101.913666
67.282631 -54.779697 101.144745
-18.138676 3.356246 2.996414
-18.384315 3.124347 2.910398
-12.596861 5.995256 4.765530
-19.214510 1.666683 0.412099
-16.760460 3.886873 1.256793
-20.161339 1.270625 0.151366
-19.224920 2.183896 0.053638
-20.473322 2.218121 0.185602
-20.482132 2.247198 0.156842
-20.782312 1.632339 0.281570
-19.040297 2.787805 0.324096
-19.466532 2.218153 -0.229576
-19.503412 2.198916 -0.243186
-20.903307 1.481926 -0.360445
-20.163946 2.313926 -1.330264
-4.892999 7.415042 1.442239
154.714066 -119.343391 127.001457
155.671448 -119.206772 127.155540
-19.104340 2.193107 0.968479
-19.104759 2.191888 0.968849
-8.101142 7.544852 8.682605
-17.808338 1.462645 4.262674
126.179924 -93.376549 120.083809
123.880066 -107.373459 113.014870
-15.619457 -1.010199 3.718150
-17.263494 2.465009 1.543833
-19.383635 -1.600919 -1.107260
-16.165884 0.266482 2.311295
-16.732698 2.811038 1.937034
-16.767904 2.436522 2.208466
-16.934738 -0.865469 1.664401
-16.405678 2.666128 2.299235
-16.418747 2.652225 2.291143
-16.618317 0.058614 2.409147
-16.456972 2.615622 2.234468
5.164034 10.027401 16.417194
-14.984243 2.756539 3.047353
-27.394146 -4.073259 3.401878
-27.845018 -7.525397 2.803263
379.731506 21.704376 40.383690
-16.016266 2.026889 3.077092
-18.193352 -1.417134 -1.298963
-16.663637 1.724468 2.919550
-16.730080 1.782530 2.891759
-15.524893 -4.695258 0.350049
-15.927891 1.422216 3.407472
-17.556700 -0.696042 1.649016
29.266651 12.280661 -0.209084
36.867474 15.050131 -1.243092
66.052185 23.718842 -1.880905
110.893982 37.220860 -3.170525
1.588860 10.742510 -2.994058
4.319178 14.653129 -0.837207
38.359852 19.293709 -2.844988
-17.464027 -0.807716 1.802621
12.063618 13.383379 -0.430809
-15.748312 0.453403 -0.609032
-15.173401 0.205197 -0.634147
-6.815525 -22.178913 -4.349818
-16.205196 -2.269224 0.539084
-16.462860 -10.522890 -2.409372
-16.720600 -4.550599 0.386851
-16.719988 -4.550888 0.384114
-11.497063 -2.522597 -2.472867
19.166365 -25.047777 -46.250603
-20.043390 -3.439791 0.468533
-12.923124 -7.487587 -5.305830
-10.417274 -5.560769 -9.456282
204.077316 -101.303986 72.717514
-18.518341 -4.386316 -2.400341
7.707598 -33.702541 18.465527
17.038120 -19.192297 22.722317
-14.708749 -0.871047 5.145805
-14.717381 -0.864698 5.122644
-25.322481 7.130007 17.112453
-25.358303 7.143657 17.080406
-25.382545 7.152659 17.054575
-13.907827 3.662664 9.093527
-14.093173 3.355036 8.577354
-12.239520 0.811497 1.203792
-15.150728 -5.750087 -3.488601
-14.224097 0.375865 2.294220
-14.221560 0.370640 2.357383
-14.118660 0.013481 2.509223
-14.054901 0.485706 2.368788
-6.305264 -25.336475 147.506821
-4.208784 -45.916294 188.085083
-4.182870 -46.235268 188.788864
26.533350 -45.525772 -25.370422
-14.951307 -2.876871 -0.525413
-13.447753 0.598129 2.293236
-11.403977 0.729781 4.019742
-11.912264 0.281006 4.405600
-10.060356 0.569239 4.973581
-11.831611 0.280285 9.559841
4.424710 1.869563 16.037300
-4.688879 -0.618037 8.454599
-9.628607 -1.951657 6.258912
-10.638782 0.153014 6.971628
-9.777530 -1.842358 6.292651
-9.798477 -1.963626 6.365173
-9.673294 -2.029834 6.467360
-9.148516 -2.501694 7.301284
-12.683150 0.758021 4.074441
-7.391973 -3.529260 13.211845
-8.881822 -4.320012 14.724244
-9.121036 -2.614902 8.289796
-9.098465 -2.622091 8.296019
-8.921686 -2.762536 8.655501
-9.113934 -2.618119 8.290250
-6.488903 -2.413740 18.399931
-11.011848 -0.121031 6.390488
-10.721771 -2.399338 9.845897
-19.222664 -17.259796 11.504716
-13.997927 0.927279 7.840093
-4.749031 -3.756939 13.090441
-7.628319 -1.592827 8.304790
-7.611000 -1.588069 8.269121
-1.907368 -4.497043 17.177254
-2.094267 -4.468736 17.139273
28.678486 -28.784187 78.282059
-6.247550 -1.333508 13.668617
82.818802 -101.549255 202.923126
-6.947550 -3.202080 12.328365
-5.693699 -3.450913 14.647077
-6.555821 -5.705941 17.953938
-9.847167 -0.550348 6.224944
-9.579159 -2.381634 10.497326
-10.257527 -1.642181 14.320427
12.660042 -29.579374 154.371277
10.362488 -27.289473 143.708191
16.223701 -34.193745 179.204208
-47.786457 -11.355563 23.423262
-9.667342 -3.458003 10.056185
-2.664087 -4.955841 16.496496
-2.125694 -1.761641 12.018303
-11.983173 -2.280926 2.437001
-14.226764 -4.093190 3.605709
-12.374757 -0.550530 1.219076
-11.887189 -1.018480 1.412719
-8.681706 2.686262 1.793746
-11.470225 -0.423327 1.056073
-6.709406 2.206760 3.772961
-6.216253 2.228718 3.535187
-6.399181 2.089063 1.431760
152.158157 117.870575 -206.985245
152.330185 118.517937 -205.167053
152.287582 117.797844 -206.665298
-4.792710 2.217409 3.984703
-4.785944 2.193836 1.466764
4.419992 4.450911 17.715076
-4.988002 2.344563 1.518387
-4.892158 2.325928 2.512959
-3.659549 2.533290 3.511365
-5.516395 4.992583 43.234089
-3.645565 12.036575 48.633240
-5.394588 2.336483 2.238581
-4.716118 2.577882 1.740742
-5.053863 2.691556 1.916249
-1.402593 2.857721 4.381017
-3.123755 2.648733 6.280182
0.119311 2.220362 7.888999
0.127647 2.218991 7.912544
-1.165263 1.852813 3.286223
21.560642 1.792549 18.967602
8.885618 0.944720 9.861659
31.970152 -2.880437 29.154762
18.374790 1.050748 18.322620
2.677426 1.300625 6.617964
4.748708 0.508957 8.517395
2.735597 1.296980 6.664574
-3.016359 -1.278214 30.300541
18.454952 -0.327784 23.910526
-4.001057 2.362536 1.002708
-2.923321 1.109113 16.662119
26.572948 11.841619 18.683880
-0.868008 2.550297 4.603100
-1.001129 2.862710 4.288520
6.935927 3.235101 6.932356
61.466785 -2.362433 49.852055
56.691471 -2.045635 46.195694
3.082788 2.329099 4.512239
41.244553 7.601696 31.956112
8.028356 -0.938510 12.513095
3.018809 -38.774658 71.485497
2.119840 2.672998 15.599984
-3.797426 3.024134 2.732409
-3.716144 -4.944156 9.923474
-3.539293 1.977222 3.378767
-4.531853 1.475334 9.438681
-3.176689 0.507456 18.879406
-1.558081 2.381637 0.721523
-1.556326 2.381443 0.726418
-1.566800 2.379442 0.733402
-1.558440 2.381871 0.718330
-1.562576 2.379830 0.735363
0.995646 4.947732 0.821567
1.082087 5.000105 0.861854
-3.428851 2.032414 0.062515
0.630937 0.209593 2.106553
-1.646915 3.071711 0.379727
6.876042 -5.057156 16.739403
-0.618690 4.113080 0.413829
18.218756 2.608234 15.645324
-1.115804 2.621181 3.240749
-1.024265 1.346743 5.321825
5.490583 3.418183 3.588760
-4.098382 1.288896 7.080896
2.839728 2.151953 3.794772
-1.174057 3.601828 1.454434
-1.174643 3.601550 1.453138
46.866066 -51.883682 122.563126
-0.145823 3.866412 -0.164111
0.332432 4.746741 -0.656311
1.225169 4.748834 -0.073915
0.042386 4.755080 -0.827899
0.102455 5.111732 -0.909852
1.326073 4.649989 0.837537
0.875606 5.458945 -0.111574
0.281959 5.039432 -0.518191
9.758408 7.452358 3.109852
0.366174 4.963027 -0.467183
0.289645 5.041660 -0.513148
6.928586 5.230666 2.353601
7.017385 5.257087 2.399122
3.062859 4.657546 -0.069720
3.132668 4.645104 -0.062411
6.747963 8.477482 0.972158
18.416307 -11.142402 51.337830
2.072618 1.307003 8.536020
-0.380733 3.561863 3.788397
-0.542184 3.834662 3.855897
0.756574 4.782036 -1.701447
2.671298 5.199886 -0.284739
2.627796 3.288655 2.643683
2.256129 5.024218 -0.782061
-0.236897 4.083981 2.294754
27.054935 11.205598 29.973431
6.293693 1.612194 8.602861
0.220276 4.955318 -0.697485
