4.224481 2.083058 -2.438756
6.221813 2.202619 -2.352418
3.886903 1.890368 -1.960253
2.387842 1.981546 -2.541146
3.936641 2.137202 -2.439714
3.875680 1.512117 -1.859440
3.887856 1.891205 -1.960465
2.388411 1.853078 -2.061118
1.616346 1.911396 -2.560985
3.354146 2.137233 -2.079825
2.724970 1.855529 -2.037433
2.388543 1.980046 -2.538296
3.846846 1.855213 -1.951320
1.875857 0.922272 -3.170430
2.413206 1.927114 -2.491244
3.834887 1.984934 -2.368199
3.861438 2.099618 -2.458413
1.623632 1.906110 -2.555380
1.544488 1.939683 -2.597257
2.023917 0.958051 -3.140114
1.562062 1.926013 -2.587983
0.833923 2.171875 -2.856603
3.070545 2.059107 -2.542699
4.126834 2.010815 -2.406836
3.526276 2.117508 -2.505843
3.915891 1.763530 -1.868634
4.318050 2.004988 -2.374823
4.325753 2.008462 -2.376606
3.522374 2.118389 -2.502148
4.252245 2.125134 -2.454387
2.231819 1.985638 -2.556866
4.335324 2.131492 -2.470650
4.970640 2.068654 -2.373249
2.855817 2.129117 -2.626215
3.198076 3.076026 -1.362366
7.105533 6.375660 -6.335635
3.147507 3.315197 -1.267580
3.383089 2.169839 -2.583813
3.013908 3.676540 -1.253855
3.361630 2.184013 -2.598431
3.436044 2.238985 -2.614900
3.054141 3.408129 -1.241510
3.060299 3.427545 -1.236993
3.041540 3.433348 -1.236612
-3.556657 1.888099 -2.478124
2.685133 1.815468 -2.502659
-1.632192 1.309498 -3.029083
-2.184560 1.316440 -3.129495
-2.322207 1.200640 -3.206622
2.714719 1.805332 -2.506662
-0.734519 1.156483 -2.860495
-1.632508 1.367774 -2.576011
-1.099460 1.417157 -2.714069
-2.031644 1.209279 -3.077242
-2.512509 1.236787 -3.287501
-1.975978 1.272064 -3.026150
-1.058003 0.768645 -3.019353
-1.767625 1.399906 -2.613746
-1.088325 1.306103 -2.761894
-1.166053 1.114885 -2.259353
-2.016727 1.857740 -2.462112
-2.092630 1.283684 -3.057716
-1.593145 1.292089 -2.991374
-1.763062 1.332247 -3.071575
-1.700528 1.297279 -2.991769
-1.906402 1.147386 -2.992060
-0.917681 1.052151 -2.637959
-0.806922 0.320529 -3.194254
2.391004 1.785916 -2.410168
-1.908439 1.193444 -2.993742
-1.888821 1.140238 -3.029623
2.613449 1.771461 -2.475528
-2.185912 1.198364 -3.138712
-0.792759 1.395627 -2.243088
-1.011096 0.977362 -2.942260
-1.067132 0.778573 -3.074905
-2.080152 1.258754 -3.024509
-2.017775 1.130482 -3.057196
1.734172 1.773012 -2.094929
-1.403162 1.243505 -2.254668
-0.928531 1.490000 -2.563114
-2.104503 1.268084 -3.119858
-2.571192 1.344811 -3.246111
-1.092212 0.777047 -3.058603
-1.795173 1.305094 -2.293569
-1.113355 1.338524 -2.269621
-1.910591 1.264307 -3.012541
-2.479192 1.236099 -3.310926
-1.918951 1.267516 -2.982568
-2.221406 1.263408 -3.093853
2.491708 2.009426 -2.082901
-1.026916 1.043987 -2.856255
-1.934743 1.231073 -2.950717
-1.938150 1.230613 -2.955652
-1.632585 1.238304 -2.902714
-1.599526 1.238281 -2.927923
-1.535293 1.177486 -2.906032
-2.097099 1.277873 -2.629515
-1.248469 1.630480 -2.661725
-1.045887 1.574144 -2.600857
-1.883556 1.242065 -2.949270
-1.047985 1.561751 -2.623545
-1.123142 0.598281 -3.153661
-1.559626 1.582029 -2.359960
-1.895651 1.255188 -2.933289
-2.332635 1.158390 -3.191961
0.020944 0.981402 -2.561984
1.446828 1.429009 -2.247191
1.240611 1.676784 -2.185803
-0.019958 0.995192 -2.622673
0.108451 1.035949 -2.712488
-0.101246 1.097600 -2.591782
2.407164 1.704142 -2.352573
-0.658939 1.045942 -2.853948
-1.630136 1.309587 -3.027438
-2.114326 1.177068 -3.115321
2.560965 1.873896 -2.444550
-1.811200 1.202048 -3.088076
-2.064687 1.273817 -3.019285
-0.838583 1.615332 -2.649521
-1.855203 1.136428 -2.964222
-2.139464 1.157860 -3.102886
2.527333 1.746733 -2.468274
-1.096569 1.356404 -2.762751
-2.117939 1.176654 -3.073541
-1.960183 1.811816 -2.442068
1.571237 1.411675 -2.247917
-1.104459 1.597280 -2.647970
-1.921602 1.137351 -2.988275
-0.919219 0.788517 -2.956239
-3.269593 1.628964 -3.769349
-2.122370 1.256788 -3.033560
-1.024441 1.224072 -2.840321
-0.987271 1.241341 -2.740744
-1.057669 1.262324 -2.782784
-1.721451 1.322524 -3.050906
-2.035240 1.198299 -3.028896
-2.029509 1.170183 -3.037408
-1.604250 1.246371 -3.026242
-1.222811 1.136064 -2.736235
-1.953683 1.246957 -2.986026
-2.351120 0.267434 -3.457874
-1.082965 1.355752 -2.758515
-2.004926 1.276776 -3.014807
-1.988000 1.211690 -3.106439
-1.815354 1.163571 -2.989790
-3.433970 1.471648 -3.742413
2.707219 2.462496 -2.009491
-2.057432 1.279818 -2.991240
-3.588767 1.496574 -3.792590
1.908323 1.773317 -2.078334
-2.041776 1.127797 -3.055285
-0.776970 1.357867 -2.223558
-1.839869 1.143644 -3.040470
-1.917398 1.139675 -2.989653
-1.813505 1.132008 -2.957598
-1.676464 1.166012 -2.984085
2.229583 1.777506 -2.061963
1.639716 1.597533 -2.003430
1.185798 1.562923 -2.225592
-2.293044 0.280648 -3.423580
1.500121 1.626410 -2.010259
-1.106733 1.595402 -2.649820
1.420872 1.436592 -2.051064
-1.815577 1.130504 -2.947615
-2.056649 1.154343 -3.088099
2.490793 1.920903 -2.072212
1.819908 1.810142 -2.005090
-0.901137 1.510634 -2.207152
1.418689 1.694642 -2.132391
-1.090922 0.606194 -3.153482
-1.633305 1.257825 -2.927295
-0.893378 0.797420 -2.970614
3.078410 2.574455 -2.141862
-2.286110 1.197631 -3.228353
-1.922305 1.250049 -2.963057
-1.348825 1.102679 -2.838975
-1.694196 1.258957 -2.942436
-1.092502 0.607026 -3.154488
-2.176290 1.725568 -2.452534
-1.939903 1.858246 -2.449039
-0.968857 0.783322 -2.983614
6.752221 3.229730 -2.928370
4.991909 2.585428 -2.634264
-0.304745 0.980894 -2.780124
2.428034 1.853285 -2.055705
2.661741 1.816513 -2.435941
-1.192265 1.222456 -2.816952
-1.024991 0.880888 -2.946414
-4.536853 1.543970 -2.741246
2.672564 1.818050 -2.414637
-1.779302 1.499619 -2.376758
-2.273982 1.211367 -3.116322
-1.079456 0.137136 -3.422861
-4.760643 1.476821 -2.808836
-4.633177 1.244686 -3.069977
-3.417371 1.246480 -3.662221
0.907456 1.671383 -2.135319
1.935228 1.916834 -2.010627
-0.863687 0.867500 -2.948606
-0.804507 1.354449 -2.752524
-1.585860 1.245197 -2.909620
2.898882 1.931684 -2.461215
-1.010107 0.863186 -2.938643
-0.839069 1.280287 -2.794864
-1.532056 1.274765 -2.956209
-1.750878 1.163296 -2.941972
2.136430 1.665363 -2.368708
-2.047498 1.934715 -2.478743
3.459332 1.939758 -2.408392
-1.049840 1.412557 -2.674009
-1.418857 1.253494 -2.934937
-1.920244 1.163922 -3.030616
-0.887246 1.025043 -2.824374
-1.304494 1.234675 -2.857795
-1.159676 1.364009 -2.791965
3.176758 1.931950 -2.412911
-1.591778 1.224066 -2.899018
-1.302405 1.123396 -2.878111
-1.668258 1.167319 -2.950356
-1.889677 1.238850 -2.956200
-1.366924 1.548706 -2.334725
-2.277048 0.277850 -3.417814
-0.447739 0.407788 -2.992960
-1.616472 1.236782 -2.917564
-1.860557 1.246421 -2.954600
-1.023829 1.534519 -2.617492
-0.450306 0.405873 -2.997333
2.965085 1.843477 -2.381575
-2.548027 1.308275 -3.335994
-1.974214 1.159639 -3.034504
-1.071857 0.243389 -3.328223
-1.156044 1.607792 -2.663903
3.732423 2.400709 -2.077897
1.492631 1.450966 -2.259615
1.884383 1.798393 -2.096311
1.432099 1.704642 -2.138688
-1.967345 1.197840 -2.991217
3.725030 2.397164 -2.078073
-1.640410 1.274437 -2.970364
-0.995361 1.258339 -2.760011
-1.726916 1.499018 -2.368989
-1.171028 0.593647 -3.164428
-1.880683 1.183123 -3.062891
-1.961692 1.131463 -3.054699
-2.041909 1.361762 -2.404250
3.595394 2.099827 -2.504650
-3.440840 1.422612 -3.716660
0.092057 1.036991 -2.752251
-1.526852 1.719644 -2.379880
-2.566509 1.785130 -2.500903
-1.007329 1.300937 -2.734086
-2.680178 1.612598 -2.868018
-1.837337 1.153886 -2.981449
-1.882062 1.162921 -3.018457
-1.877659 1.452199 -2.317331
-1.930803 1.464953 -2.324323
-3.051536 1.561795 -2.567480
3.072675 2.125937 -2.059598
-1.044929 1.695451 -2.241950
-12.076912 4.018472 -3.688665
3.171274 2.171036 -2.058642
-1.960265 1.164590 -2.998679
-1.073676 1.192943 -2.773608
3.591055 2.029441 -2.433678
2.815422 2.978828 -3.128731
1.761605 0.942540 -3.000950
2.960641 1.810782 -2.005850
3.025310 2.036793 -2.457448
1.749432 0.888457 -3.040890
1.760461 0.896268 -3.019514
3.821810 1.987301 -2.376490
-0.432177 1.525652 -2.510704
3.863152 1.905938 -1.958930
-0.719765 1.595674 -2.583221
-1.127041 1.601398 -2.663045
5.188048 2.247333 -2.459689
-0.395420 1.232595 -2.623312
-0.510485 1.248897 -2.664404
-0.400065 1.239061 -2.632383
-0.924670 0.785237 -2.960655
3.004652 1.860399 -2.384276
4.880932 2.522605 -2.612859
-1.048772 1.200091 -2.754278
-2.230620 1.340589 -3.187067
-2.046707 1.175937 -3.025683
-3.803788 1.310139 -2.633553
-2.966705 1.372435 -2.535541
2.486174 1.820962 -2.435033
-0.035550 0.998088 -2.635349
-1.675629 1.255572 -2.931281
-1.185504 1.180095 -2.743505
2.538963 1.843871 -2.444931
-2.654024 1.581951 -2.503926
2.868365 1.888021 -2.427976
-3.020185 1.676272 -2.918258
-2.035699 1.498326 -2.331543
-3.396354 1.456633 -2.595543
3.526146 2.265599 -2.638813
-2.476266 1.247111 -3.210540
-1.781684 1.253925 -2.943563
-0.668697 1.628937 -2.193892
3.625881 1.986157 -2.403484
3.505316 1.952836 -2.406562
6.303161 3.130647 -2.860742
0.496431 1.731653 -2.231115
-1.750845 1.477917 -2.304792
1.308017 1.949878 -2.217220
3.800797 1.946551 -2.387187
7.791102 4.038009 -3.253033
3.750849 1.912599 -2.372765
-0.405297 0.905293 -2.818390
-1.018596 0.872827 -2.975036
2.367049 1.862675 -2.480433
-0.817402 0.922907 -2.932979
-1.822962 1.104717 -2.979226
-1.988472 1.132699 -3.041940
2.744631 1.853497 -2.036180
1.184843 1.691707 -2.161638
-2.048892 1.138697 -3.065040
2.386406 1.826879 -2.453338
-1.919016 1.135223 -3.035380
-1.910933 1.181587 -2.986392
-0.092876 1.033992 -2.642962
-1.986384 1.262068 -3.032852
-1.111604 1.218284 -2.794936
-1.840951 1.184142 -3.020500
-1.001324 0.970301 -2.930869
-4.027490 1.565213 -3.043303
1.136330 1.691694 -2.165249
-1.031365 1.333414 -2.733320
-0.100918 1.006081 -2.724315
2.898925 1.927958 -2.456795
-1.251048 1.510577 -2.251880
3.332257 1.902696 -2.383847
-1.826844 1.188735 -2.973772
-0.874195 0.803008 -2.973112
-1.048994 1.075933 -2.848693
4.245422 2.135679 -2.531708
-1.049127 0.668404 -3.056866
-2.581561 1.617334 -2.405627
2.631905 1.886357 -2.464060
-1.193288 0.600866 -3.183154
2.814059 2.069288 -2.074805
3.896644 2.784489 -2.132027
-2.068820 1.531431 -2.417223
-0.990047 0.677332 -3.020789
-1.327666 1.773075 -2.276810
-1.175779 1.609007 -2.236833
-2.556648 1.474349 -2.486121
-2.991525 1.566643 -2.551000
-2.772239 1.517472 -2.519629
5.503547 4.359274 -3.740738
2.197926 2.674192 -3.007955
1.431705 1.644559 -2.203893
2.436316 3.404013 -3.430416
4.918510 8.310004 -6.230741
3.796391 1.922581 -1.975536
-0.553415 1.552875 -2.543149
-0.533856 1.545057 -2.537184
-1.604936 1.199688 -2.930545
0.034283 1.020965 -2.735457
-0.793287 1.431131 -2.612228
-1.188743 1.619181 -2.652110
6.779788 3.168419 -2.865089
-1.084204 1.542929 -2.659589
2.616919 1.972652 -2.508813
2.072814 0.935865 -3.005006
2.081835 0.902884 -3.015706
3.910499 2.023743 -2.392585
2.420283 1.982127 -2.533662
2.083641 0.903948 -3.023059
3.779401 2.232465 -2.502220
3.728527 2.006857 -2.377244
1.506743 1.808809 -2.289626
3.989338 2.051956 -2.404599
2.074927 0.947744 -2.969740
0.763686 1.028085 -2.571795
2.451547 1.887183 -2.467997
2.118760 1.877038 -2.534857
3.709153 3.165066 -3.168403
1.490992 1.748138 -2.142076
0.152258 1.073285 -2.710114
-1.108393 1.597303 -2.657426
5.755842 4.493770 -3.819011
3.100315 1.583942 -2.213563
3.314487 1.669297 -2.236140
3.181437 2.166448 -2.053626
0.479368 1.734294 -2.233686
-1.022302 1.425307 -2.679273
3.622607 2.435083 -2.076323
2.818379 2.072987 -2.069687
2.246433 1.677782 -2.370802
-2.855507 1.639513 -2.512818
-0.946883 0.775371 -2.984525
2.909254 2.109632 -2.079874
-2.166104 1.295676 -3.112561
7.877377 3.546182 -3.021539
-3.830503 1.876419 -2.670618
3.317977 2.214647 -2.065954
0.756694 1.686392 -2.081984
-1.105298 1.553839 -2.672537
2.599444 1.812543 -2.036302
0.482752 1.718349 -2.234876
-0.950407 1.527452 -2.597843
-1.068423 1.578075 -2.644954
-0.949331 0.780042 -2.983861
3.979475 2.566053 -2.066913
1.253262 1.665115 -2.186967
1.091656 1.699201 -2.167000
3.984925 1.959607 -2.401316
1.092314 1.700348 -2.165603
6.835815 4.971657 -2.266963
3.620575 1.899585 -2.422985
-0.905690 1.019738 -2.828184
5.278443 4.186829 -3.731164
3.648309 1.908797 -2.428713
4.022819 1.971859 -2.404695
3.926808 1.929386 -2.383182
0.179175 1.061266 -2.652179
7.843339 4.023407 -2.061464
3.537428 1.958737 -2.404621
3.730556 2.024497 -2.426739
-0.977718 1.533525 -2.607640
-1.153621 1.439962 -2.734600
3.663412 2.029813 -2.442814
-0.988992 1.099775 -2.757513
-3.564317 1.346578 -2.885282
3.398254 2.068871 -2.503490
-3.577466 1.383395 -2.625593
3.723813 2.282978 -2.610313
3.948986 2.379991 -2.648063
-1.155039 1.611013 -2.637337
0.488138 1.723540 -2.230570
3.576781 1.921770 -2.389690
3.506363 1.968583 -2.398730
5.082045 2.534280 -2.631558
2.729120 2.030585 -2.528908
2.667869 2.006804 -2.499783
2.303551 2.183150 -2.658437
1.298697 1.827593 -2.198945
1.754794 0.896537 -3.106905
7.947337 3.030509 -2.765662
2.604442 1.901704 -2.464231
-1.512380 1.436032 -2.285985
3.045563 2.474973 -2.815124
1.036775 1.721601 -2.277986
0.377978 1.805598 -2.247375
0.310968 1.833682 -2.260930
5.775380 2.074937 -2.282423
1.439110 1.849800 -2.328561
1.395684 1.830789 -2.228981
1.401115 1.803983 -2.458431
8.253477 6.771080 -4.965507
3.766464 1.908415 -2.357518
3.665397 1.920179 -2.360147
13.034402 9.163225 -6.010710
-0.035399 1.319221 -2.163739
-0.661890 1.037649 -2.955246
-0.404650 1.195279 -2.707038
3.675444 2.089857 -2.468626
6.052292 2.133183 -2.317261
3.796051 2.071752 -2.434579
5.164392 2.244111 -2.468648
2.119065 0.945663 -3.012173
2.066984 0.908437 -3.102836
5.011812 2.200436 -2.474870
5.914529 2.130376 -2.315342
6.030770 2.132008 -2.317272
6.055813 0.680760 -2.955311
5.987558 0.694973 -2.940460
5.934380 0.700516 -2.900908
2.055912 0.907143 -3.115301
2.073762 0.946094 -3.013186
1.437348 1.737774 -2.179798
1.327189 1.696982 -2.168553
4.022160 2.059527 -2.410441
0.840212 1.821950 -2.165317
4.081178 2.067007 -2.410799
1.480556 1.686549 -2.164073
1.442374 1.736127 -2.179023
-0.302593 1.430950 -2.474542
6.794226 2.747935 -2.656716
2.659311 2.104259 -2.603227
4.228882 2.090923 -2.434273
0.554552 0.746716 -2.768859
10.371440 6.711516 -4.749301
5.945156 2.139570 -2.325258
1.389673 1.778958 -2.186888
2.859816 1.916887 -2.564284
3.742668 2.102221 -2.469620
1.405456 1.884200 -2.365174
6.017963 2.162344 -2.297747
2.936360 2.295153 -2.696518
3.903561 2.094337 -2.443216
14.195025 6.963232 -3.922270
3.478267 2.013787 -2.008844
9.683057 1.366243 -2.307908
5.484469 0.323852 -2.491315
10.145329 1.052851 -2.336305
10.068970 0.988579 -2.531777
3.723697 1.788796 -1.620641
3.949227 1.845809 -1.742385
3.003896 1.900932 -2.055655
4.563094 2.568966 -2.803415
6.725754 0.607598 -2.830662
2.223152 1.828852 -1.984333
10.844796 1.980757 -1.543129
9.809109 0.985547 -2.482994
10.022929 0.985191 -2.528890
9.919391 1.278982 -2.295120
11.477768 3.967984 -0.744557
8.686761 2.566074 -2.382047
6.184722 0.642273 -3.006290
3.949771 2.136872 -2.516730
-0.311394 2.519750 -2.846910
9.651176 1.019607 -2.403395
5.989346 0.504057 -2.734609
9.840917 1.319490 -2.363159
9.887924 1.542881 -2.284189
8.392578 2.609021 -2.527365
6.838144 1.859837 -1.992007
1.317790 1.846831 -2.239980
7.256807 0.612163 -2.868810
12.189232 1.983287 -1.568599
10.238376 1.205582 -2.310459
10.650302 1.416130 -2.090905
0.893285 2.098257 -2.589694
9.731588 1.049300 -2.458479
12.319943 3.479854 -2.955090
0.572483 2.230094 -2.667917
6.658992 0.362700 -2.392402
6.316741 2.175129 -2.263995
6.680318 0.609885 -2.809666
0.897592 2.022164 -2.402989
7.031745 0.684122 -2.673726
5.945585 0.528160 -2.701012
10.507649 1.690608 -2.175581
10.378877 1.209899 -2.335046
9.483644 1.572641 -2.187084
10.025926 0.983961 -2.530956
7.489080 0.590859 -2.989853
5.949905 0.556121 -2.689661
7.046551 1.924999 -2.039070
0.797872 2.143676 -2.849208
0.876042 2.033957 -2.444725
6.748855 0.310973 -2.474319
8.186555 -1.043829 -5.486735
1.493960 1.748884 -2.198045
6.029254 0.542152 -2.742835
5.465548 0.330432 -2.477681
0.684969 2.113115 -2.514669
6.056917 0.681238 -2.961329
3.660052 2.033876 -2.364533
2.456670 2.004240 -0.925404
4.244843 1.927317 -2.232489
5.639095 2.498909 -2.103961
2.959661 1.866069 -2.365363
5.522588 1.869926 -1.818649
4.794240 1.854260 -2.137307
4.574594 1.782395 -2.141135
4.394587 1.816817 -1.802322
4.379638 1.846960 -1.893104
4.446836 1.773935 -1.841239
3.527953 1.710844 -2.153407
5.776302 1.966713 -2.088816
5.402460 2.033076 -2.295246
3.065079 1.842788 -2.324797
6.310606 1.798330 -1.957991
5.155288 1.921169 -2.205487
3.811756 2.068856 -2.416580
4.956457 2.022236 -2.240952
4.150290 2.104644 -2.426552
3.451674 1.816327 -1.875850
4.622744 1.826383 -2.168048
4.369113 1.834807 -1.888508
4.404487 1.733277 -1.825950
5.407079 2.034552 -2.298388
4.380691 2.181579 -2.455995
2.507194 2.451555 -0.544817
4.375211 2.173225 -2.449712
1.203457 1.973324 -2.601462
1.521273 1.847222 -2.483104
5.279716 1.997405 -2.260320
2.313565 1.809550 -2.034632
4.745241 1.744007 -2.102053
3.005438 1.903697 -2.395354
4.200972 1.905468 -2.250829
5.430826 1.976447 -2.209642
1.371425 1.890942 -2.549030
1.506372 1.853876 -2.491273
7.309206 1.955141 -2.074171
6.373173 2.034409 -2.137313
1.378470 1.846003 -2.451825
6.246755 1.750203 -1.947024
1.845351 1.660424 -2.208444
1.151240 0.915653 -3.614668
5.735783 2.133715 -2.335782
6.333681 2.218381 -2.388356
6.045153 2.232654 -2.365603
5.825971 2.141693 -2.371116
5.709250 2.079773 -2.338070
1.453732 2.093173 -2.731035
9.702418 2.236434 -1.984268
5.563492 2.278794 -2.510165
2.268620 2.025774 -0.981638
5.875975 2.334577 -2.459808
5.624783 2.059007 -2.326824
5.563347 2.277860 -2.510757
2.269401 2.025005 -0.982059
5.881840 2.190314 -2.407832
5.713717 2.082001 -2.339459
6.551239 2.090195 -2.239295
2.702959 1.970911 -2.106294
1.448319 2.095235 -2.738193
2.201979 2.316489 -0.781230
7.798822 2.349777 -2.271718
5.527722 2.503273 -2.667629
3.797947 2.160388 -2.493882
4.153118 2.137065 -2.469218
2.275931 2.021966 -0.983588
2.951784 1.945244 -1.982786
2.175251 1.959324 -2.142501
6.015356 2.154001 -2.347495
5.293151 1.941033 -2.186776
3.806038 2.182967 -2.508880
3.990217 2.060293 -2.520256
2.590752 1.963871 -2.099345
6.007825 2.150465 -2.345393
1.174346 1.922744 -2.525246
2.894386 2.156157 -2.677234
6.242741 0.641620 -3.056224
3.990747 2.064257 -2.541357
4.370900 2.025690 -2.392622
4.773255 2.136833 -2.445227
4.315609 2.095125 -2.410154
3.460052 2.143157 -2.534276
2.550919 1.906492 -2.453156
1.688198 1.835821 -2.026137
6.903553 2.220742 -2.259553
4.439944 1.808635 -2.184826
3.520062 2.113270 -2.508969
4.259604 2.042051 -2.378402
3.977150 2.072939 -2.517120
3.759477 1.922529 -1.996357
2.526467 1.959812 -2.110794
6.193707 0.653091 -3.016544
3.802823 2.109354 -2.497297
3.442518 1.867535 -2.344435
5.665389 2.052578 -2.285893
1.120892 1.801753 -2.180798
1.391996 1.774027 -2.175722
1.471868 1.819082 -2.337553
1.425519 1.813368 -2.206792
5.920115 2.104577 -2.303972
1.462400 1.839479 -2.320876
1.216364 1.865586 -2.227914
1.420747 1.817472 -2.209110
3.698409 2.353394 -2.661893
7.452132 1.948758 -2.071699
6.677336 0.591765 -2.895596
1.055288 2.018775 -2.712639
1.993286 0.941773 -3.162199
8.052557 2.099374 -2.144887
6.082301 0.666361 -2.993304
1.317120 1.843414 -2.466517
6.718740 0.589975 -2.894957
8.121867 2.117314 -2.152756
4.390466 2.207374 -2.556158
7.399714 1.935268 -2.065664
1.781918 0.897539 -3.084506
6.072169 0.642664 -2.944613
3.965737 2.005113 -2.489060
4.783202 1.898556 -2.283334
1.082955 2.004227 -2.700718
4.335950 1.793054 -1.906178
4.245901 2.222599 -2.565260
4.312243 2.066725 -2.428302
1.291510 1.865558 -2.474770
7.745332 2.011829 -2.130100
3.986307 2.067961 -2.463579
4.117314 2.132558 -2.513792
6.042035 0.590274 -2.825285
5.265133 2.238415 -2.496881
1.015290 2.036682 -2.739906
4.345066 2.097471 -2.469719
5.711642 2.406302 -2.598316
2.457689 1.762703 -1.971663
6.102658 0.637798 -2.962256
7.724686 2.039456 -2.125578
9.941200 2.642986 -2.459965
1.291745 1.857813 -2.483038
1.875799 0.937482 -2.980380
1.789848 0.876138 -3.084161
4.268430 1.911631 -2.319029
4.383069 2.160702 -2.482594
5.896456 2.154120 -2.329222
0.979483 1.984119 -2.602391
2.987697 2.007829 -2.549350
2.896706 2.003403 -2.534123
3.629874 1.107237 -1.665871
4.079831 1.275290 -1.753409
4.344927 1.143351 -1.637167
4.156277 1.465797 -1.731491
10.376761 2.178640 -1.864803
3.937624 1.640488 -1.839840
5.169795 1.280886 -1.653376
4.013726 1.620380 -2.034298
4.146707 1.447419 -1.721441
3.710560 1.815333 -1.735673
2.764097 1.570119 -1.840743
8.437325 0.518571 -3.465971
2.583247 1.716565 -1.910402
6.926136 2.472175 -2.381761
7.601647 2.994036 -2.918286
2.571729 2.144674 -0.784913
3.140668 2.032445 -2.521371
4.092050 2.092298 -2.473409
1.207150 1.915075 -2.598650
4.174309 1.986709 -2.368064
5.407678 2.022254 -2.255759
4.951611 1.889466 -2.246310
1.514207 2.006991 -2.657604
2.846378 1.943356 -2.480784
1.640141 1.975278 -2.617789
2.053756 0.933846 -3.104210
6.532786 2.243452 -2.384388
1.623412 1.986848 -2.629601
3.890870 1.939188 -2.431836
1.481061 1.729915 -2.220729
3.897861 1.942695 -2.441772
6.912286 2.344736 -2.431432
3.883982 1.712633 -2.230672
2.688419 1.844381 -2.039105
2.737814 1.856911 -2.051901
2.725550 1.870465 -2.059110
2.038005 0.927746 -3.068908
3.089648 2.038937 -2.526059
2.296983 1.825518 -2.436960
5.180022 2.139675 -2.444522
3.185575 2.063448 -2.045180
3.905319 1.952851 -1.695323
1.265592 1.865471 -2.485516
6.136267 2.170507 -2.340514
4.141490 2.142086 -2.467753
4.559826 2.377864 -2.623839
2.857373 1.962278 -2.624762
3.106907 2.195323 -2.650705
9.835552 1.869364 -2.131841
4.820448 2.015558 -1.972723
3.721572 2.021004 -2.415351
5.564917 2.141366 -2.320743
3.983891 2.269245 -2.610023
7.789896 2.080113 -2.160255
6.063836 0.631850 -2.631259
3.716920 2.172493 -2.559230
3.621555 2.123045 -2.467579
3.080842 2.081783 -2.557177
10.743529 2.084854 -1.944866
7.140242 0.622596 -2.812429
7.029750 0.630805 -2.720825
6.070028 2.066310 -2.166746
6.177135 2.061546 -2.153859
4.847570 0.286157 -2.553999
4.067576 2.227028 -2.571459
3.833807 2.183397 -2.541608
3.921896 2.149886 -2.528484
3.898667 2.086882 -2.554773
9.991167 0.981933 -2.504071
10.084192 1.100728 -2.450948
4.881936 0.272708 -2.593146
4.450305 2.146738 -2.420749
3.806945 1.956892 -2.022096
3.621394 2.204191 -2.462747
6.144339 2.009870 -2.250482
3.589868 2.025854 -2.068922
2.680534 2.379669 -2.926183
6.585940 0.640869 -2.612271
6.786890 0.595373 -2.830914
7.466571 2.051603 -2.085603
6.589471 0.609558 -2.812645
5.983076 0.554273 -2.717993
6.042997 2.096997 -2.311694
3.099552 2.209798 -2.664287
7.292091 2.074988 -2.093899
7.359790 2.014598 -2.119381
6.361692 2.161325 -2.209816
0.301628 2.261944 -2.912106
3.721912 2.015769 -2.410762
9.941781 0.928450 -2.452250
10.215339 0.952517 -2.480335
4.443485 2.030340 -2.390041
3.469465 2.108204 -2.515783
6.146594 2.135543 -2.237955
10.015086 0.923664 -2.467220
6.113834 0.488998 -2.823921
4.074069 2.263082 -2.600961
7.174407 0.619719 -2.828494
8.365018 2.584785 -2.532764
3.072175 2.096813 -2.571446
2.140538 1.878873 -2.016743
3.456172 2.158164 -2.556683
5.188334 2.120580 -2.402104
4.245593 2.179062 -2.519904
2.321074 2.282296 -2.337283
10.425545 1.814059 -1.564383
3.938039 1.829384 -1.622668
10.089463 1.345034 -2.399216
7.466571 2.051603 -2.085603
7.850839 2.099193 -2.172082
6.165642 0.643300 -2.993915
3.958781 2.169354 -2.554687
9.985604 0.875508 -2.370887
11.638892 1.916311 -1.547157
7.202773 -0.600231 -4.465371
4.446754 2.139605 -2.415078
4.442809 2.039086 -2.395699
1.937709 2.172966 -2.296451
0.437029 2.574396 -3.268625
2.926690 2.004616 -2.123900
13.931548 5.074589 -0.551480
10.558205 1.864634 -1.996927
13.777008 5.005047 -0.568584
6.588593 0.666364 -2.538482
7.188361 0.618337 -2.835092
6.022637 0.502105 -2.762488
6.110133 0.487601 -2.818800
4.284152 2.049464 -2.406629
4.089528 2.028730 -2.402442
4.127970 2.181417 -2.547340
9.993288 1.329762 -2.390149
6.041597 0.684220 -2.948099
3.934762 1.840745 -1.626532
2.737221 2.679516 -3.132851
6.607492 0.344835 -2.419253
6.721687 0.316572 -2.463260
0.894377 2.101496 -2.591891
0.844027 2.048141 -2.447755
3.951644 2.142972 -2.525867
12.016999 1.935140 -1.467880
11.763587 1.930172 -1.553480
6.196745 2.073083 -2.158997
2.678862 2.382089 -2.927339
4.441772 2.152534 -2.429294
3.874793 2.224402 -2.583383
3.200264 2.478928 -2.827485
3.077908 2.086786 -2.562952
6.013687 0.552864 -2.742823
4.075893 2.269742 -2.608087
3.705078 2.215847 -2.609156
10.188280 1.616030 -2.052586
9.901770 1.215457 -2.340365
9.589127 2.275991 -2.157996
6.459478 3.167850 -2.461875
3.432298 2.684398 -2.874613
3.769750 1.970010 -2.030540
6.125874 2.001301 -2.243063
13.317496 3.796102 -3.246296
8.805566 2.211590 -2.167123
6.763648 0.597776 -2.818961
8.686708 2.430727 -2.313579
7.699588 2.046483 -2.132078
8.339496 2.241642 -2.258728
7.536452 2.110469 -2.206298
3.586783 2.044008 -2.079606
1.121524 1.415637 -2.243335
-0.666745 1.577660 -2.584125
-0.765764 1.225935 -2.608412
-0.752085 0.720635 -3.058282
-0.713031 1.614207 -2.612307
-0.488499 0.922246 -2.852138
-0.597552 0.707194 -2.917479
-0.886903 1.412992 -2.828415
-0.896089 0.790861 -3.039615
-0.885618 1.411469 -2.830748
-0.761557 1.127427 -2.571413
2.738990 2.129316 -2.081975
-1.069091 1.345183 -2.752956
-1.044233 0.788549 -3.016340
-1.216093 1.568706 -2.319827
1.296302 1.708431 -2.188662
2.549523 2.183896 -2.104767
-0.272994 1.076082 -2.736891
-0.950771 0.903941 -2.918039
-2.068339 1.172820 -3.059658
0.956660 1.711395 -2.138021
-1.945098 1.122663 -3.024571
1.497735 1.697848 -2.160994
1.266117 1.723435 -2.161333
-1.865519 1.138413 -2.970705
-1.221670 0.173651 -3.495040
-1.041976 0.597013 -3.216828
1.402183 1.663824 -2.020889
1.331944 1.641527 -2.164748
1.234325 1.482012 -2.276343
-1.074105 0.620257 -3.115233
1.015481 1.710553 -2.178695
-0.467564 0.958873 -2.778770
1.280246 1.468096 -2.069515
1.272442 1.460337 -2.010675
2.467720 1.905807 -2.060635
-1.090918 0.617625 -3.128503
-1.543587 1.261798 -2.916042
1.448906 1.444755 -2.050725
1.351414 1.501664 -2.008687
1.253910 1.439399 -2.009541
1.182017 1.604537 -2.198688
-0.793707 0.685466 -3.007706
-1.179847 0.586490 -3.241753
-1.138668 0.100274 -3.502602
-1.803703 1.292343 -3.024335
1.246700 1.740478 -2.172461
1.175750 1.406520 -2.011507
-1.763560 1.127694 -2.927627
-1.438979 1.374191 -2.311930
-1.109648 1.245418 -2.891263
-1.551238 1.267031 -2.917273
-1.754078 1.270593 -2.961000
-2.064378 1.158606 -3.105666
-1.015580 0.629815 -3.068484
-1.109272 0.612072 -3.145615
-0.477543 0.388963 -3.045249
-1.888959 1.223253 -2.944109
1.440678 1.667123 -2.169732
-1.869062 1.122517 -2.975652
-0.774258 1.568599 -2.641050
-1.806400 1.133624 -2.946156
1.159981 1.564622 -1.811050
-0.987871 0.681056 -3.024767
-1.450977 1.377462 -2.314328
-1.730838 1.124967 -2.913127
-1.884271 1.143778 -2.982723
-0.992261 1.245272 -2.753245
-1.120787 1.248685 -2.902738
-1.194227 0.068175 -3.558902
-1.746754 1.107814 -2.921152
-1.253640 0.081202 -3.674053
-1.124558 0.597409 -3.195453
-1.084709 0.196413 -3.446002
-1.364956 1.257810 -2.902820
-1.729374 1.238604 -3.037573
-1.136652 0.578879 -3.281942
-1.101505 0.601381 -3.176455
-1.668125 1.123685 -2.904309
-1.857275 1.131510 -3.011709
-1.531233 1.248911 -3.033715
-1.220298 0.098705 -3.637499
-1.915748 1.211172 -2.966798
-1.994232 0.347868 -3.267723
