5.245263 -9.442894 22.476824
3.815701 -6.806645 9.561027
-16.676357 -10.115569 44.464954
4.447289 -3.362052 13.036917
4.649999 -3.835441 13.052540
7.942018 -9.874475 43.983181
-8.923029 -65.410240 90.334557
6.146575 -3.492764 12.990760
5.835940 -3.611537 13.543606
4.579581 -5.936076 17.224945
6.012650 -4.451266 12.830436
5.698105 -4.653112 12.076393
6.686149 -5.055937 12.168361
-13.538054 -16.959732 73.979233
2.987085 -8.969069 13.357960
5.834959 -4.412832 11.796419
6.392641 -4.394998 11.708794
7.433959 -4.502486 11.385516
6.003929 -5.680349 13.515779
6.359347 -7.259761 12.548359
6.860418 -4.493527 10.858897
4.791509 -7.418226 10.835790
8.597109 -3.096996 12.188842
8.598639 -3.096675 12.193809
1.792987 -7.362325 25.161819
3.037111 -11.541378 22.965525
5.498760 -5.728237 9.209707
5.495797 -5.727392 9.214193
4.784676 -6.686415 9.569190
6.058015 -4.243365 12.510694
5.621478 -6.531337 14.766124
5.151562 -5.079842 13.364567
5.068027 -5.394550 13.888212
4.672015 -7.837394 11.465548
6.386652 -4.518826 19.543074
6.572066 -4.566392 12.620756
6.570261 -4.565476 12.628843
5.904011 -6.243381 14.100044
0.586278 -7.617560 23.801613
4.852658 -6.216547 13.739616
2.390866 -5.371307 26.136017
3.438756 -3.828322 25.750242
2.170494 -3.608962 36.341209
-0.106741 -0.577624 54.691982
2.055154 -3.758218 35.697327
1.785801 -3.018681 37.341156
6.391478 -4.231485 10.381030
6.395098 -4.231781 10.377280
1.123908 -14.510839 30.989380
-8.058393 -8.554321 33.136383
7.477813 -4.798048 16.562357
7.466547 -4.816628 16.722418
8.172757 -5.096339 16.771801
-13.419737 -11.589781 52.912231
-12.958570 -11.306669 51.530846
-13.252234 -11.479403 52.522354
5.286105 -5.856650 10.678392
5.609587 -5.463031 13.499028
7.388126 -4.474072 12.675515
5.604602 -5.467560 13.516891
5.671497 -11.259628 18.713108
-249.785919 -78.598030 506.174225
-26.895473 -14.847153 66.217285
6.464149 -5.622051 14.688261
5.563128 -9.014923 19.380278
5.141006 -10.903053 22.032513
0.316560 -12.955450 13.388369
1.501162 -11.964442 31.938747
4.351595 -11.209523 20.391146
4.259044 -11.758120 20.913055
4.638670 -10.157694 19.160301
4.198687 -11.363911 20.677521
1.466162 -12.003530 32.066334
1.624033 -11.766282 31.293705
1.487325 -12.050517 32.114799
5.482345 -8.921726 20.568531
4.571848 -10.175311 19.194744
2.577916 -3.425599 20.587872
1.981380 -3.245478 21.720356
5.020055 -5.309606 13.964710
-0.519147 -12.987581 35.754738
-2.024629 -6.799174 34.976036
3.757887 -6.411707 17.318649
3.579056 -5.879989 14.364278
-0.243499 -12.808431 14.934839
-0.113181 -3.720806 16.526653
-2.111707 -8.551088 33.667294
4.527783 -6.188979 14.307052
6.865399 -3.269584 11.614260
-13.757637 -50.305489 67.782463
-131.553650 -521.669800 1315.034546
7.449116 -7.372033 15.631926
2.966920 -14.054482 22.285854
5.022955 -7.281785 13.651509
6.355104 -9.576569 20.977867
7.608669 -7.956628 16.773460
2.396089 -15.233302 23.208090
4.950256 -5.976969 14.648420
4.230786 -6.085944 12.387785
3.520328 -7.179974 14.686292
2.609204 -7.647173 15.810797
5.094670 -5.612427 13.678514
3.629858 -6.353109 11.300265
3.629586 -6.351471 11.299838
4.700444 -5.950530 14.630212
4.506839 -6.560826 17.380938
4.899988 -5.632650 14.799901
0.238416 -6.936328 26.469440
3.584704 -9.747937 27.939045
-0.859405 -5.146848 17.383017
-0.872191 -5.146049 17.395531
4.142255 -6.414392 10.993668
4.149949 -6.411046 11.002788
4.144289 -6.418111 10.998621
4.514723 -5.786056 13.053429
3.804259 -6.267561 15.360229
3.256085 -7.403001 16.534027
5.618891 -5.682697 14.022502
3.527516 -7.255604 15.193346
5.511271 -5.763803 14.409575
3.609396 -7.437578 16.472486
2.960926 -6.467574 21.104820
3.075267 -6.954762 14.881063
3.101489 -6.952514 14.817621
-7.727196 -11.179428 18.174149
3.653502 -7.140084 14.772907
2.766586 -5.127563 26.685802
2.804181 -5.138927 26.587036
-5.185373 -8.209249 23.062019
4.892199 -5.487340 11.737324
5.326716 -5.036671 15.358164
5.323431 -5.030606 15.409458
3.762526 -6.983976 16.124287
4.566146 -5.733858 14.540950
-1.071059 -7.951685 24.936268
-14.829869 -36.803429 39.305984
4.593024 -6.236421 12.733822
3.352132 -7.344984 14.909792
3.578644 -7.281055 15.265997
5.178921 -6.206363 14.370337
3.439226 -6.382425 17.913412
-3.081640 -12.165880 24.820045
-2.974492 -12.211597 24.867592
3.361536 -7.103777 15.065913
-2.531157 -13.646597 30.715836
-0.004074 -10.078854 20.954454
-1.820486 -12.488687 25.698833
3.232434 -7.361837 13.799307
4.880841 -6.336307 13.706395
2.999328 -7.585931 15.820607
3.582711 -7.425563 14.344833
5.915432 -6.685329 16.219379
5.971035 -6.179612 14.876163
4.462792 -10.237326 22.064785
4.144722 -8.057187 18.332024
4.194432 -5.338571 15.293050
3.565492 -6.662376 15.847003
3.986546 -6.572438 29.088699
4.297456 -5.410698 15.121916
3.235120 -7.293644 17.252468
2.512763 -7.395079 15.755306
3.980326 -5.547607 15.116180
3.896590 -4.813164 16.700783
3.882231 -4.759161 16.892784
1.353576 -0.685009 25.519646
2.987145 -6.848726 16.442005
2.487686 -7.753585 15.702512
2.360624 -11.605379 19.455891
6.590852 -5.664927 13.951221
2.440032 -11.602293 19.424681
1.976467 -10.135714 16.651300
2.059269 -9.945196 16.528328
1.888095 -10.258469 16.784546
4.012259 -7.215817 14.347316
6.071738 -4.818975 13.515247
-9.303116 -9.187946 24.191998
3.774588 -7.551490 14.897862
-9.121254 -9.131409 24.019295
5.147285 -7.644549 17.176733
4.140853 -7.124686 13.656499
2.482688 -7.122547 13.864074
3.427771 -7.132558 16.155399
2.427173 -7.690516 17.200592
4.432133 -6.446692 14.405519
4.658893 -6.247913 13.791328
4.529702 -6.201435 14.029552
-1.122697 -8.877114 15.760408
4.508250 -8.616879 17.736546
5.458755 -6.083524 17.327759
2.018091 -11.443043 23.544247
5.344519 -5.877315 17.109026
4.851470 -5.811430 13.165780
4.023131 -8.054891 17.319920
5.948025 -4.711240 13.446246
-7.303266 -17.973501 45.672543
3.719788 -7.880212 16.222195
5.993851 -4.571388 13.602313
5.909333 -4.627635 13.163216
-3.609970 -24.779928 59.311352
4.446317 -6.457089 15.485397
-3.541428 -19.967251 33.764179
3.024573 -8.962656 17.386070
-137.038666 -161.568710 -58.831638
5.826643 -4.829252 13.125227
4.997341 -6.101224 15.996484
-12.495855 -24.919050 48.836193
3.731030 -6.041543 15.578579
5.115700 -6.803404 13.684879
6.066146 -6.804394 15.377942
0.605336 -8.404947 10.836049
6.547223 -5.306440 13.249946
6.468877 -5.219723 12.939934
-7.338599 -25.310326 39.038437
4.697405 -6.576135 13.617996
5.016239 -5.835071 12.055845
4.403689 -6.766283 12.662057
-3.059711 -10.836939 9.421389
-13.306559 -17.185703 7.849707
0.257285 -8.927691 11.366530
6.323188 -4.925884 13.551947
4.752739 -6.295652 12.440660
5.697534 -6.533157 16.353333
4.371944 -7.233295 14.412109
5.675453 -6.558449 16.464075
6.223488 -5.074863 13.684856
2.050122 -8.940522 13.192033
6.299298 -4.945074 13.548271
6.244020 -4.935339 13.397675
5.580179 -6.043888 14.809455
5.423250 -5.918578 15.349399
-1.396456 -8.175189 10.430273
-19.241138 -11.849689 15.325353
3.114650 -7.869170 15.688158
4.087452 -6.642502 14.166687
-25.621738 -58.432079 98.184555
4.613589 -5.946362 17.855507
5.521794 -5.056618 13.481346
3.471815 -7.192667 14.655730
1.126198 -5.829864 11.011184
3.426823 -6.573617 10.760245
5.766941 -5.138809 14.354518
3.350338 -7.750289 15.771526
1.757884 -12.865348 27.247818
0.089440 -9.072027 12.118333
5.748343 -4.992716 14.269733
5.655227 -5.027501 13.576441
5.615139 -5.031267 13.428662
-0.091924 -7.426530 16.860384
-26.946953 -21.368065 38.555126
-0.941224 -7.893132 17.991627
1.988111 -5.735603 16.167387
-27.761759 -23.732517 37.310078
1.858008 -6.580397 14.044791
3.787503 -5.246871 13.852654
3.540418 -5.301234 14.168243
5.070177 -6.855108 15.489124
6.353519 -4.848142 13.495570
2.978098 -9.411108 15.701933
4.245224 -6.739750 13.097579
6.133392 -5.341319 14.359538
-1.341882 -10.620260 8.740593
6.105227 -5.242268 13.817884
7.121462 -9.063095 27.976095
6.046101 -5.095974 13.297951
6.454171 -6.565575 18.726955
-9.227690 -33.371861 28.023823
5.350377 -5.879507 12.294669
6.894495 -4.950904 14.092429
-5.011357 -14.950247 8.311073
0.307597 -10.492395 10.483036
6.694093 -5.030413 13.702549
2.852266 -9.711439 15.314986
2.598755 -9.497477 14.980177
-2.319260 -20.259232 29.585426
3.050777 -8.205772 14.040779
3.047473 -10.643508 16.648266
5.937926 -5.655697 14.324464
-2.574359 -7.569529 11.823106
6.088483 -5.462750 13.326735
2.220060 -9.110361 15.310346
1.708857 -9.492160 15.520018
3.111568 -8.232525 14.832644
5.308022 -5.354504 12.897914
5.721358 -5.453953 13.834170
5.712695 -5.448310 13.826097
5.725585 -5.453467 13.836662
1.745399 -8.838077 15.092075
-1.799580 -12.359374 19.472401
0.565602 -9.222927 16.679264
1.665647 -7.664757 10.857958
5.296556 -6.432053 16.561012
5.403547 -6.061850 15.324048
5.401879 -5.689485 14.122563
-2.757741 -9.830931 17.392927
2.849323 -7.525236 13.929806
-9.457902 -16.712391 23.899542
2.944884 -7.427649 14.030149
-31.876606 -45.374184 53.824600
4.294907 -5.446116 12.477931
1.876313 -7.318442 9.951057
5.233351 -6.657568 17.241449
5.399658 -5.718829 14.239983
-2.908831 -15.924654 32.642303
4.331436 -5.846806 12.580599
5.698120 -4.429315 13.728067
4.497254 -5.679016 12.435992
-10.161501 -23.962360 28.915810
3.481330 -6.746463 14.702977
3.618577 -6.758317 14.062206
-161.528778 -282.633636 433.873169
5.389198 -4.443841 13.778111
-17.724401 -19.613285 6.384070
-17.600939 -19.529934 6.402706
3.240966 -6.028344 11.713503
-23.667366 -36.206833 22.812611
5.669178 -4.592534 18.023487
5.657683 -4.606563 17.697187
-1.560343 -20.253551 17.712585
4.437393 -8.741821 14.557056
-1.482318 -20.119320 17.648727
-10.243561 -15.730125 4.259932
6.804983 -4.635854 13.740013
-5.492324 -22.628216 19.988960
-6.998318 -13.164870 5.009117
-6.930363 -13.107503 5.038695
5.574500 -5.094053 14.744193
-2.818220 -20.167837 21.425648
4.113992 -6.854502 13.982988
0.142277 -14.361729 27.582781
4.065400 -6.834105 13.935426
3.118588 -11.042702 24.975662
-4.765612 -13.718791 6.667755
-9.367318 -29.129400 16.137899
-5.522938 -17.904533 15.501027
4.295534 -5.136529 10.697057
9.837802 -12.412235 84.178795
-103.045013 -131.211838 234.440643
6.120888 -3.512276 13.270308
0.409666 -11.665037 22.816797
4.672832 -7.111012 15.504388
-1.966097 -11.794477 9.600995
2.224007 -9.346564 9.321857
-12.279901 -31.829311 21.777874
2.249699 -9.227777 9.347798
-4.864025 -14.579741 31.521210
4.417353 -5.360583 14.813409
-1.772185 -12.019357 24.870434
1.949071 -5.979215 13.390308
-3.869679 -13.631923 27.160839
1.746587 -6.133410 13.343833
-2.612056 -7.242545 14.421080
2.123163 -5.399128 14.069967
-2.630555 -7.242441 14.421845
2.251330 -5.420847 14.027637
1.252911 -5.900194 13.585978
2.133062 -4.876779 15.825464
2.959978 -6.460031 13.605990
2.931836 -6.348049 12.517141
2.429580 -6.420159 13.186238
-2.481225 -7.728638 15.112603
-1.223464 -6.589931 13.233820
-0.745070 -7.425345 14.790906
-7.372357 -12.242956 18.119877
-57.500824 -65.730476 -1.457691
2.961332 -5.104691 13.918986
2.910274 -5.101303 13.951686
2.482736 -5.906624 12.259355
-0.845973 -7.020815 16.478195
-0.832924 -7.020270 16.482912
-0.566146 -6.697995 19.679537
-2.429969 -7.174708 18.770977
2.429443 -5.878305 13.019443
-5.308786 -8.101273 20.300503
1.403893 -6.326180 13.794291
-0.769708 -9.522981 11.039917
-0.620496 -6.883043 14.402740
-2.828850 -7.588335 17.425200
-8.243145 -6.579701 16.461838
-0.280748 -7.628712 15.283871
3.696754 -5.558458 12.558034
-1.838457 -8.937464 18.792437
-0.358679 -6.665274 14.588708
1.350301 -6.206162 14.459073
-3.332048 -6.841272 14.835567
-0.363478 -7.694707 14.935805
3.521898 -5.553657 14.197284
-12.702490 -10.807298 19.857685
1.530710 -7.801015 14.321745
2.013666 -6.919476 14.124643
-1.340368 -8.758344 17.099657
1.241047 -5.537226 14.818757
1.370346 -6.779568 13.625017
1.329253 -6.284966 12.663727
1.638311 -6.353674 12.693112
0.390330 -6.313493 13.478324
0.418118 -6.311095 13.471024
0.903747 -6.541196 13.590308
-9.112223 -14.877587 17.521439
3.221181 -6.085210 9.864824
-12.002098 -1.330466 2.925227
1.756076 -5.950000 13.276010
1.607159 -6.218761 13.194853
1.172867 -5.983168 13.640612
0.578303 -5.996035 14.200436
-1.185489 -6.939953 14.928978
-1.787760 -5.962325 15.728573
-2.851989 -10.044395 14.597445
-2.801916 -10.011835 14.523295
-21.224375 -25.039999 25.402622
-2.924557 -4.356774 17.449425
-2.840457 -4.425235 17.336983
-0.406008 -6.734477 14.601521
-2.738003 -9.932406 14.440362
-14.421375 -19.350542 20.565754
0.366649 -6.018593 12.962801
0.572718 -5.674651 15.214306
0.500466 -5.676274 15.328946
-40.616302 -13.218464 -13.921225
-2.795875 -5.610217 14.588181
-0.396392 -7.270145 14.748626
1.073984 -5.898539 12.895751
-0.972715 -6.646052 15.401639
2.207032 -5.855126 12.476842
2.632959 -5.886402 12.162380
0.814936 -7.781549 10.479778
2.718726 -6.185922 13.159184
2.595579 -6.409288 12.969612
2.131606 -6.402398 13.446578
2.435953 -6.101308 12.449848
-9.045854 0.654078 -8.195704
-9.081250 0.654376 -8.289679
2.433894 -6.120173 12.428957
2.074778 -6.458314 10.270879
-36.620998 -12.784883 -7.224827
1.220354 -6.295759 12.763050
1.282585 -6.337460 12.734601
-0.027932 -8.618155 9.079168
2.283161 -5.700464 13.216276
2.467555 -5.841903 12.122460
1.969880 -6.116636 12.583239
1.452047 -6.192191 12.231982
-4.300448 -6.159456 16.977640
-0.014086 -6.607761 12.398564
-0.367188 -7.419560 12.418981
-1.153662 -5.486433 12.382083
-1.203219 -5.489588 12.391592
0.247915 -6.486292 14.975419
0.216900 -6.491708 14.999875
-39.992542 -26.451069 18.568083
-3.922773 -12.831364 1.350049
-13.081874 -9.850971 18.515520
-14.305152 -10.185490 19.012125
1.647096 -5.299373 12.023027
-0.075503 -4.318966 11.771426
-0.426591 -4.485178 11.429585
-9.333961 -9.525959 11.472287
-5.867096 -13.895422 10.932400
-5.070161 -13.441643 11.046324
-6.523222 -14.442572 10.948288
-10.694693 -15.820929 18.045399
2.870128 -5.964180 14.202580
2.869850 -5.964056 14.202614
2.911178 -5.899131 14.109110
-0.517314 -7.267498 11.208754
0.407176 -7.371189 11.800237
0.474391 -7.346345 11.803485
0.263663 -7.372019 11.789991
-30.721945 -21.547401 17.032661
2.216401 -6.235151 12.417169
-2.114473 -6.091689 16.028233
-1.186045 -6.493195 13.555291
-3.703624 -6.319410 14.037662
-2.857934 -5.748249 16.623320
-0.724002 -7.573795 12.289063
-1.425342 -5.651765 12.702362
-1.474863 -5.654994 12.712036
-0.035416 -7.262176 14.974854
-0.066319 -7.271692 14.998173
-41.062794 -25.904751 14.922778
-3.159986 -10.182987 0.229667
-9.771215 -15.791311 17.900646
-10.809575 -16.562391 18.327465
2.314362 -6.339426 11.489946
0.324090 -6.318145 11.663762
0.021941 -6.356184 11.245428
-5.683351 -13.449976 6.567788
-6.232315 -13.587545 11.279819
-5.422395 -13.153816 11.379354
-6.906822 -14.110695 11.318357
-11.238251 -14.892599 18.410419
2.941225 -5.813097 14.097437
2.940945 -5.812973 14.097457
2.985443 -5.750163 14.003964
-0.333919 -7.197978 11.016537
0.569051 -7.284647 11.642971
0.636049 -7.259521 11.648024
0.425998 -7.286172 11.627629
2.352426 -6.128550 12.296801
2.660751 -5.644622 12.377501
-0.403033 -7.152932 13.387364
-210.208740 -138.741409 -10.028898
2.829869 -5.915610 12.129404
2.608540 -6.179456 12.656739
-0.538779 -8.158232 13.772908
-10.990669 -12.130699 16.661009
-12.808485 -12.784578 17.005836
-33.377399 -12.701388 -21.101974
-4.216168 -7.003229 3.929918
0.257497 -6.802582 6.738793
1.640380 -6.513144 9.008736
1.831053 -6.073184 12.676769
-234.232758 -139.326324 5.982586
-24.103626 -8.304390 -18.848700
0.663186 -6.236375 5.458788
2.127153 -5.367024 7.441229
-12.766650 -12.272754 13.408445
-16.116861 -13.388960 13.231972
-7.422539 -3.543468 10.768282
-7.435014 -3.543516 10.767764
0.853522 -7.107522 12.632133
-2.598613 -6.587119 11.630002
-0.108096 -6.963973 11.680758
-329.416595 -58.693794 -79.962288
-42.921055 -17.999937 -64.587471
-56.300583 -21.973177 -85.887489
-44.312492 -18.455328 -66.917198
2.460821 -4.972728 9.599947
-0.225254 -5.331392 10.972343
-8.604406 -5.624960 -13.718499
-8.190132 -5.307641 -12.081298
-8.833759 -5.668416 -14.194379
2.369051 -6.017515 11.498610
-1.219506 -7.426655 12.498784
-1.026414 -9.507318 20.863180
-2.071411 -5.691602 30.429604
-3.121902 -5.789032 32.668888
3.130011 -4.620357 14.135425
-2.938338 -6.452240 15.097518
0.122866 -7.796884 11.629992
-5.904660 -10.293533 29.338968
1.039826 -7.375026 13.090194
-2.512697 -7.147798 12.368896
-0.102818 -7.045273 11.604384
-328.990692 -57.124866 -82.434418
-43.063427 -13.331648 -65.118797
-56.470928 -15.997400 -86.604195
-44.457645 -13.642900 -67.470512
2.427929 -4.874475 9.660900
-8.840691 -2.586357 -13.443946
-8.425748 -2.486485 -11.779431
-9.071696 -2.570548 -13.920745
2.459445 -5.672187 11.889595
-0.527833 -6.063359 11.195273
-4.333759 -7.547342 7.874300
-4.572714 -7.597661 7.779301
2.721848 -4.698681 9.413836
1.711676 -5.865835 11.475827
-24.761684 -20.763935 -0.822062
2.679469 -5.684672 8.886758
2.834329 -5.711796 12.124831
1.707391 -6.473413 12.029286
2.835633 -5.710853 12.124633
2.144776 -6.153545 13.089522
2.150897 -6.162525 13.127666
1.269966 -6.204691 10.407087
-16.125032 -10.429557 3.616665
1.511283 -5.981542 11.572613
1.579734 -6.073949 11.616101
2.710083 -4.139555 9.379908
1.890983 -5.836637 12.390926
-3.916874 -1.648944 2.201978
-2.037284 -7.071630 9.553674
1.248120 -0.467351 -0.853456
1.049210 -6.033409 11.856395
1.074270 -6.027721 11.858741
-10.603580 0.773045 -13.693786
1.732337 -2.588055 9.452353
1.041429 -6.606508 12.830527
2.670768 -4.493829 9.314737
1.082765 -3.364349 7.947158
2.471710 -4.356835 9.459628
1.950241 -5.959594 12.579866
-4.647053 -1.791462 2.874973
2.837827 3.566486 1.269214
1.688327 -6.070280 11.187490
1.711757 -6.063610 11.195998
2.138072 -5.840985 11.903162
2.137504 -5.840336 11.902901
3.227390 -4.664196 9.989053
1.926817 -6.086957 11.819303
-0.612033 -4.104066 10.599952
-17.956823 -12.994181 12.814068
-4.197721 -7.674983 8.657433
2.616919 -2.517519 4.658448
2.580602 -2.500253 4.754401
2.601373 -2.442270 4.633013
-6.060117 -8.166445 10.812109
-20.659172 -1.670623 -40.410637
2.082969 -5.466546 9.072088
-2.887812 -6.420641 8.526730
1.845550 -6.151423 9.050637
-5.672845 -7.737395 12.898040
-35.590191 -17.360622 7.316202
-46.166759 -20.461502 5.954500
1.474099 -6.304657 13.726528
-6.571531 -6.192505 0.336795
-6.805960 -6.330807 -0.077043
-23.706490 4.199567 -4.531531
1.812718 -5.970782 13.468372
-2.769641 -7.985596 19.772879
-7.264345 -12.714555 16.285355
-5.908634 -18.333576 11.834787
-17.901590 -22.510780 19.264395
-8.939949 -7.063176 12.493109
-8.896704 -7.043221 12.488585
-53.567276 -26.363647 4.498459
-95.808983 -40.897419 -2.819153
-3.057417 -8.899292 8.930546
-3.188186 -5.921370 14.445184
-6.213269 -7.014241 12.350618
-1.882339 -7.674597 10.464180
-3.821496 -9.426925 14.893604
-29.803032 -23.237730 -1.774506
-39.074268 -27.996149 -5.613123
1.400607 -6.402682 13.631828
-0.312021 -4.758125 6.860542
1.875058 -6.044903 11.812043
1.875409 -6.037223 11.808500
-10.090571 -4.338013 -12.127275
-3.301788 0.953617 4.922678
-3.279137 0.937027 4.961414
1.771170 -6.126024 11.960546
-0.660426 -4.377819 6.747270
-0.587186 -4.402329 6.803145
2.632847 -5.286415 9.855670
3.030534 -5.843675 10.502414
-1.022293 -8.465833 11.856274
0.795341 -5.415621 9.994482
3.206242 -4.664488 9.600109
-0.853824 -6.991676 10.998945
-3.278346 -7.316524 9.995344
4.160258 -5.946400 7.942603
-1.038893 -6.957154 12.381982
-3.963474 -7.620206 11.313580
-5.810830 -2.914767 9.704630
-142.826706 -98.267677 -78.300499
-5.201815 -7.316391 8.785502
-19.605522 -11.896862 2.702775
-23.417171 -12.193295 1.521413
1.161834 -4.818996 9.637797
-21.734173 -13.497356 6.148904
0.168923 -5.860912 14.067619
-2.119823 -6.281215 10.208320
-3.335652 -7.735782 2.501920
-213.154312 -59.131088 28.710842
-2.129055 -5.892170 11.633794
-4.718963 -6.127069 11.156044
2.290700 -8.725963 8.803559
-0.588903 -6.966320 12.428137
-3.470396 -7.814154 11.373400
-5.494358 -3.293072 9.474458
-137.352051 -109.342842 -74.056374
-5.006966 -8.330889 10.169903
-19.430054 -15.014258 6.598611
-23.298075 -15.824356 5.970645
1.094271 -5.144347 9.886570
-19.259859 -18.279118 16.966774
1.455752 -5.348817 14.860132
-1.695756 -7.216162 12.235207
-4.739823 -11.000011 5.958364
-12.922247 -10.985860 15.084925
0.314618 -5.015081 15.100376
-20.658365 -16.697021 15.946095
-24.046444 -8.917410 7.160830
-35.614307 -10.681095 6.773680
0.973995 -5.339751 12.117700
-2.826787 -16.455164 -2.803763
-17.538834 -21.349777 -0.456315
-57.312889 -36.788177 -33.051056
-58.266888 -42.036793 -16.672112
-6.329725 -8.641243 11.873993
-20.648020 -7.109377 3.675316
-3.281802 -7.449067 11.001764
-20.594522 -7.113165 3.700674
-2.519425 -6.688809 11.518739
-23.816116 -3.368111 -0.162109
-3.236483 -6.990350 11.043287
-3.816171 -7.138001 10.045170
-11.413177 -9.994371 -0.655090
-4.023443 -7.455941 12.960388
-1.817912 -6.494740 12.368183
-0.764308 -9.735249 8.020767
-19.814375 -5.983084 7.958483
-7.533241 -8.415665 10.986393
-29.133167 -24.010473 1.425962
-2.572997 -7.606426 12.688479
-20.687597 -16.274748 10.510191
-8.952032 -16.493608 1.531750
-8.403424 -11.883158 5.801015
-2.453918 -6.456559 13.103004
-0.261015 -4.817851 13.152533
-4.866272 -6.306670 14.440244
-123.947975 -65.032471 28.664600
0.386898 -5.858473 13.951398
-21.465708 -19.455410 -12.740807
-2.582042 -7.534226 12.601490
-20.725149 -16.065104 10.136698
-138.695984 -59.041779 -0.654743
-9.861338 -16.431067 2.214696
-9.033361 -12.080460 6.705853
-5.598114 -8.396383 10.602106
-1.152781 -11.448635 14.075047
-17.580948 -12.420393 -18.803757
-4.911565 -8.806627 5.430086
-2.802053 -6.581025 8.851959
-34.418106 -22.898708 -26.610796
-5.451403 -8.105054 11.562007
-3.430277 -6.679275 11.665667
-6.183114 -8.637179 9.307648
-1.650285 -6.341681 10.988542
-137.529724 -72.398834 -36.893265
-17.362623 -8.349415 -73.846748
-2.613547 -7.266266 2.941578
-3.037756 -6.832300 6.146639
-5.070332 -7.515147 12.176369
-6.468239 -7.275439 11.225793
-4.120826 -8.121769 5.996964
-6.061056 -7.122671 10.748055
-5.867942 -7.167649 10.705456
-7.641122 -5.226104 9.029705
-14.750093 -8.721504 6.415276
-8.267220 -7.218167 -3.979959
-5.031701 -7.990101 0.093250
-1.811215 -7.675282 7.660983
-4.944206 -7.949377 0.143421
-2.421302 -6.791466 6.129323
-23.321447 -4.258532 -4.436976
-3.589384 -5.065911 9.319469
-5.643174 -4.833233 7.378492
-3.070308 -2.220432 2.707421
-2.782256 -5.524487 5.137158
-2.314988 -8.133261 9.003334
-4.909396 -5.224773 10.166127
-1.006942 -6.185942 14.022265
-4.901221 -7.392613 -0.232055
-1.614799 -7.048945 8.936630
-1.799032 -5.837677 10.394375
-1.806703 -5.831752 10.387733
-0.731875 -6.006071 9.649716
-1.499456 -5.230268 8.745943
-2.481740 -5.654283 5.664943
-3.581718 -6.008233 12.936488
-3.707277 -4.888802 12.649642
-7.410382 4.192805 0.350775
-4.092193 -5.925476 3.940906
-2.236085 -5.883585 9.470221
-0.909789 -5.997618 10.368685
-1.285866 -5.735188 9.699405
-8.375586 -8.403673 10.833563
-7.168591 -5.893967 10.031229
-4.479342 -5.994591 10.533074
-1.211297 -6.208248 5.466820
-45.446957 -22.593285 -4.412043
-4.793192 -7.366817 10.714781
-1.852590 -6.025288 10.001369
-41.652248 -14.835009 -20.355621
-1.256059 -5.728649 11.159384
-1.530197 -6.293008 10.900124
-1.008109 -6.606276 8.300937
-5.044716 -7.017279 9.945318
-2.027275 -6.201933 8.961435
-2.188315 -6.283213 8.752134
-1.923502 -6.698829 8.244233
-3.587050 -6.902039 10.282850
-2.160537 -5.633398 8.451546
-1.653175 -4.986208 6.350468
-1.037592 -5.585824 10.148901
-5.095134 -6.355591 9.832919
-3.634002 -6.286970 10.908484
-27.465258 4.494450 -33.108227
-20.496450 -11.056543 -15.875751
-4.016069 -7.673824 7.549388
-29.077492 -8.187886 -10.992426
-21.451550 -7.921851 -4.742590
-5.080508 -5.574204 6.842590
-3.956204 -5.995098 9.734957
-2.620519 -6.688604 6.697292
-0.793335 -5.393526 9.182073
-4.624053 8.987640 -25.929976
-1.645049 -6.069849 9.969450
-32.620174 45.016861 -49.166550
-113.079071 201.604309 -270.644989
-31.213297 -4.736313 -7.039926
-4.169575 0.564039 -2.555634
-414.830566 470.245819 -1299.320190
-5.257289 13.402687 -11.197248
-5.009157 2.905848 -19.466970
-3.583519 -5.599562 9.167953
-4.202110 -5.709722 9.863165
-5.509727 -1.267905 4.398268
-3.736282 -5.508512 9.035099
-13.906025 -8.782992 -10.793920
-2.312803 -6.058393 9.002708
-3.149350 -5.594857 9.646843
-2.316527 -6.054603 8.994661
-4.494803 -4.865905 12.327587
-4.360999 -6.721006 10.158715
-3.330087 -0.919622 7.070608
-2.389501 -4.230108 3.192495
-3.930507 -6.491344 12.218367
-2.267436 -5.574201 10.914143
-340.763580 43.955494 -293.700317
-6.627625 -5.190165 6.601388
-4.074956 -5.746418 9.428537
-1.390163 -6.113194 8.642801
-3.542894 -6.261912 11.835213
-10.497947 0.044255 0.038086
-1.837733 -5.496156 10.184478
-4.050717 -6.126205 11.354213
-4.055192 -6.098855 11.346586
-11.907455 -4.709884 2.591105
-13.847994 -0.975304 0.747906
-1.349128 -5.285738 9.553807
-2.376957 -3.695138 2.404996
-4.485274 -6.472341 11.941275
-21.998745 -3.927861 -0.199200
-4.577925 -5.680520 9.196642
-4.150862 -5.456959 3.099646
-15.659410 -2.691585 -38.678520
-2.278614 -4.481697 5.862036
-11.293114 -4.346738 2.332589
-2.737482 -5.342686 3.186726
-1.046757 -5.599346 9.784967
-7.012444 -4.940449 7.951095
-15.349603 -2.507614 3.470725
-5.617304 -5.759616 1.683184
-5.570760 -5.296542 3.503201
-4.806711 -5.982269 12.648159
-15.724560 -7.872143 9.215430
-14.255339 -5.627984 -0.420708
-15.616928 -5.534784 -1.619857
-13.536993 -5.904967 0.703900
-2.773650 -5.875072 9.983809
-2.789771 -5.949557 9.762759
-23.600758 -3.636412 -9.853615
0.921847 -5.323269 -5.204903
0.975108 -5.341823 -6.362682
-4.533654 -5.536087 9.442421
-3.642712 -5.432916 1.962744
-5.038881 -5.931479 11.926609
-11.172588 -6.604994 4.378887
-4.196143 -5.839807 9.501030
-1.126752 -4.825038 -10.775698
-1.030560 -4.909825 -9.809406
-3.286602 -6.160253 12.183459
-19.860987 -5.308333 -5.583951
-5.220099 -4.563315 0.601506
-20.041611 -5.709859 -2.516006
-3.590275 -6.183803 10.016267
-10.713512 -4.322193 0.876507
-6.171997 -4.204803 -15.058773
-1.864143 -5.376438 10.442438
-3.046989 -7.342185 12.617764
-2.854327 -5.550812 10.369629
-4.148856 -6.192060 11.778725
-3.354457 -5.687624 10.195600
-3.358911 -5.687403 10.192612
-8.261327 -5.166588 6.506286
-3.360812 -5.685144 10.190430
-4.087937 -6.170548 10.096662
-3.354043 -5.583465 10.110311
-4.143443 -6.188266 11.776509
-3.606836 -6.064693 3.769245
-16.680519 -3.143630 -13.721487
-3.286680 -5.745400 6.757801
-8.549593 -5.405713 6.605964
-46.402832 -4.623298 -2.573943
-10.115858 -5.313269 9.066316
-12.608871 -3.823864 8.085854
-5.375155 -6.053366 10.053417
-38.752476 -11.392304 -9.820947
-6.299826 -7.003925 6.743252
-6.602888 -5.439831 11.805445
-13.382408 -4.199545 -9.367548
-4.865503 -5.970014 12.212032
-7.870616 -7.909381 9.054489
-6.165802 -7.055801 9.044403
-2.297919 -6.182547 8.073099
-4.481458 -7.005113 13.806269
-5.087821 -6.500566 8.923119
-1.942797 -6.090726 8.610054
-1.939826 -6.075619 8.635667
-2.545637 -5.133167 8.206800
-2.547450 -5.137602 8.195012
-4.846343 -6.925627 13.626644
-3.816591 -6.258265 11.670666
-1.652260 -6.460910 7.265090
-18.594124 -4.203504 -4.377104
-8.268071 0.593287 -10.499903
-4.056486 -4.870382 4.661790
-3.343928 -4.742803 6.765490
-695.827087 17.329647 -20.797714
-3.714098 -6.006918 12.263871
-3.714445 -6.006636 12.263802
-5.461029 -5.707584 12.349920
-3.235137 -6.324740 7.899109
-3.540578 -4.714563 -0.902978
-3.664523 -4.771107 -1.902249
-3.212480 -5.222242 8.733704
-6.372884 -5.535086 11.868166
-8.217223 -2.484883 1.951903
-6.328960 -5.756035 11.851501
-3.048081 -5.951704 8.131689
-21.871681 -7.704016 2.622939
-3.324802 -6.148127 8.853294
-5.854409 -5.913401 12.471242
-5.177657 -5.798614 12.620768
-19.919994 -7.283366 -4.423049
-4.151575 -5.602508 10.286798
-4.171935 -5.594442 10.270658
-12.988817 -6.488750 -0.437861
-3.856306 -4.305904 4.351186
-6.034961 -6.201284 10.666271
-1.796873 -4.766047 8.871507
-3.612243 -6.280134 10.101102
-17.316448 -4.337272 -5.273932
-4.723300 -5.138772 9.070697
-2.466336 -5.769988 8.545744
-2.641642 -5.951344 9.175376
-5.006350 -5.853361 11.287451
-3.817067 -6.569143 10.500618
-22.222868 -2.860455 -7.018158
-4.615193 -6.298113 11.482013
-1.861433 -4.203671 4.834893
-2.308873 -5.659465 6.641916
-4.268883 -6.204129 11.356117
-4.269906 -6.204447 11.355874
-5.126287 -5.501666 5.306718
-3.739229 -5.887121 7.217120
-2.468119 -4.707529 7.847708
-2.832795 -6.960778 8.373205
-4.403118 -6.085266 11.458122
-3.380583 -6.636917 8.716009
-3.642678 -7.041294 8.118761
-3.869615 -6.531015 7.993091
-5.982567 -6.233283 9.447464
-5.519793 -4.890531 7.336075
-173.059998 116.298851 -238.321671
-1.659347 -2.509825 1.969856
-7.939632 2.578152 -1.568337
-2.429205 -5.129475 8.927416
-11.119017 -6.243789 7.870283
-63.265812 15.663321 -76.116638
-30.456810 20.278946 -47.288368
-31.960407 19.658480 -53.361389
-30.084177 21.282730 -48.461624
-39.465759 19.628443 -52.557732
-29.407902 20.185698 -46.059578
-5.252317 -5.993877 9.023932
-1040.843506 13.191593 -1223.829834
-71.477692 -5.311718 -65.895638
-3.742363 -6.776777 8.908014
-5.558228 -5.529164 11.399221
-8.973507 -5.119143 12.525288
-3.854980 -5.475874 8.620704
-4.698952 -4.696138 5.022042
-3.474440 -5.588811 8.671392
-4.343217 -5.428166 9.646923
-4.252458 -5.127679 9.235260
-21.938595 -3.008562 3.450556
-19.799873 1.120165 -20.774757
-3.579099 -6.758563 9.199252
-4.832766 -6.420837 9.698662
-3.978968 -6.532489 8.531841
-5.731180 -5.264915 12.117357
-145.220871 7.300671 -48.595753
-222.784485 21.215435 -102.517136
-5.647874 -5.993878 8.415985
-4.222153 -5.741710 10.747982
-40.882637 10.117308 -72.350235
-5.029089 -6.016631 11.839954
-5.449662 -6.326305 9.554267
-4.309102 -6.365732 8.567713
-5.183301 -5.596391 11.821483
-6.044706 -5.097753 12.468987
-5.736142 -5.269859 12.310642
-6.331058 -4.979084 12.571324
-6.323842 -4.979476 12.565709
-225.397232 -14.799969 -209.350113
-5.657506 -5.316587 12.211771
-7.450834 -4.777626 12.500512
-5.655521 -5.316288 12.210215
-5.937756 -5.198850 12.277275
-4.487169 -6.166059 10.429330
-8.389318 -3.185031 -15.292080
-5.338697 -5.570846 7.763689
-4.219202 -6.006829 7.384412
-3.414274 -5.452979 9.176918
-4.003235 -5.515837 9.990555
-3.394521 -5.452098 9.197494
-7.415693 -5.793113 12.307363
-7.078430 -5.689313 12.203259
-5.081651 -6.156805 11.920384
-7.421018 -5.776462 12.329729
-18.222773 3.413664 -0.442579
-4.217633 -4.432256 4.639185
-6.279205 -5.406124 12.973402
-5.244984 -6.027102 9.790718
-6.580579 -5.904010 6.682800
-6.940235 -6.086987 11.887147
-6.699215 -6.084222 11.750611
-4.476761 -6.199904 11.237003
-4.331529 -6.266304 11.809253
-7.238954 -5.863893 7.564358
-3.925489 -6.316422 9.417299
-4.500133 -6.293283 10.899485
-4.696975 -5.865043 11.036157
-93.921364 -15.594509 -101.548477
-3.910647 -5.920892 9.974950
-5.169282 -6.118423 7.294040
-6.204989 -5.770689 12.714292
-4.049370 -6.610281 5.372468
-44.170380 -1.912613 -57.411697
-6.292458 -6.672864 6.564188
-99.140419 -23.419678 -172.803177
-6.398633 -5.347594 11.607070
-4.524212 -6.820838 8.921684
-8.467139 -4.696388 11.981195
-6.673811 -5.338129 11.813951
-3.211929 -6.486831 9.621192
-38.739697 -12.482159 -64.827942
-64.333496 -0.267559 -115.752785
-10.849908 -7.050719 7.209195
-6.484446 -5.085774 12.540987
-6.575329 -6.824177 2.420954
-5.577884 -6.291152 8.992931
-6.762106 -5.494803 11.947784
-6.321775 -5.226023 12.359247
-3.279444 -5.660771 2.572397
-7.210867 -8.263800 -1.532662
-3.917439 -6.796848 9.421228
-17.519638 -6.374950 1.877820
-33.947987 -4.552109 -19.402691
-27.602997 -5.025909 -13.041225
-6.216987 -7.240218 7.839993
-6.614453 -6.787249 2.462082
-3.519881 -8.945076 5.027670
-6.271393 -7.251366 7.797132
-6.147084 -5.936462 8.425265
-4.429428 -6.132075 11.802939
-12.764614 -8.680998 4.566733
-4.808922 -5.386032 4.292847
-3.902976 -6.450178 10.462762
-3.783066 -6.213749 10.608045
-5.150113 -5.423753 8.128568
-4.486392 -5.505180 10.557995
-4.410089 -6.297320 10.864761
-4.524305 -3.480783 4.667698
-4.473608 -5.493715 10.515292
-31.357540 -8.226606 -27.345585
-7.208683 -6.628625 13.154790
-6.534499 -6.673620 13.042645
-6.703330 -6.700291 13.075748
-5.061929 -5.861960 9.531973
-6.423027 -6.544531 7.775591
-3.843936 -5.857200 9.876387
-35.585987 -13.977540 -134.575531
-3.421011 -5.922047 9.775630
-5.391938 -6.164000 12.603996
-6.336110 -6.206248 12.828171
-5.284055 -6.124902 12.558091
-6.400626 -4.541030 8.470036
-5.475028 -5.587735 9.483772
-11.963396 0.326810 -10.579998
-3.881786 -5.879324 9.713120
-24.330223 13.732943 -63.942398
-3.780762 -6.049564 9.908795
-23.372746 12.921366 -60.370468
-6.741234 -6.586791 8.889246
-5.872019 -5.223638 8.100597
-4.803139 -5.333723 7.208435
-4.800297 -5.322325 7.219938
-4.963971 -6.383691 9.781361
-4.033042 -6.998449 4.113855
-5.368330 -5.017027 7.464402
-5.171103 -6.476876 9.924606
-7.253225 -5.886744 12.412176
-7.462499 -5.984629 6.256452
-6.271723 -6.265395 10.783360
-9.464960 2.552696 -1.638227
-9.339651 2.378675 -1.219148
-7.545077 -6.438479 13.777083
-8.016470 -0.543967 6.083047
-11.285963 -7.325730 11.258531
-4.970618 -5.916393 10.303720
-7.181790 -6.498160 8.407441
-11.115419 -7.686277 12.064867
-8.646859 -7.304504 13.003654
-5.232351 -6.235573 10.095480
-6.762552 -2.387386 7.453461
-7.569218 -6.563017 12.820635
-9.334033 0.069304 1.209113
-6.992557 -4.935150 9.151134
-9.190165 -0.372822 1.908911
-6.480621 -6.792593 8.282435
-8.221479 -6.030793 13.395770
-4.450557 -3.026183 6.488612
-4.526393 -6.004846 10.167298
-8.675007 -6.323667 12.271861
-5.546387 -0.675014 2.856795
-6.287829 1.814867 -2.834130
-5.774432 -2.155919 5.745107
-5.633065 -6.193427 10.326185
-9.062883 -5.326495 12.165451
-7.528631 -6.069593 12.614735
-6.382295 -6.184970 9.732611
-5.428171 -6.710038 9.964306
-6.184819 -6.462388 8.593985
-6.458766 -6.234406 12.060786
-8.523057 -5.964644 12.937811
-4.598764 -5.874035 10.113016
-5.471736 -0.854296 6.351258
-7.485735 -6.682285 12.605612
-3.050156 -0.808136 0.116275
-5.908446 -2.316076 8.687050
240707.718750 344100.562500 -82415.226562
240706.765625 344098.156250 -82404.789062
240707.515625 344097.531250 -82408.562500
-2.945508 -1.109866 1.372277
-3.004441 -1.023438 1.088454
-5.424381 1.709569 3.781057
-73.498116 22.558350 -155.755249
-5.365375 -5.916725 10.380318
-7.206508 -4.133003 0.565819
-6.302348 -6.423407 10.459608
-23.263721 1.683913 -10.682625
-5.217685 -4.066042 0.639544
-5.228599 -4.048347 0.546898
-5.225219 -4.050059 0.648905
-5.138665 -3.998386 0.810707
-5.570317 -2.567190 7.316957
-6.279642 -6.705951 8.904703
-7.064126 -6.352171 5.282532
-8.311039 -5.601329 0.448492
-6.918507 -2.720373 5.790448
-10.862117 -8.258735 -3.324726
-9.228063 -6.452665 9.050459
-6.804560 -6.353382 9.948746
-7.681023 -6.602338 10.810419
-7.275179 -2.671624 7.589813
-6.510484 -6.626882 12.534849
-4.648987 -4.707608 8.983954
-8.217886 -6.503662 8.861565
-5.001843 -3.304211 3.438167
-4.984625 -3.348331 3.609216
-5.207789 -6.256533 10.412245
-7.834977 99.091499 -126.212074
-4.249975 -3.272860 3.814632
-5.601403 -6.050639 5.707114
-5.370785 -6.059707 9.313443
6.068010 39.079502 -53.066658
-2.476023 -4.471784 5.409955
-7.820508 -5.224709 3.961201
-8.782115 -5.835417 4.458310
-31.880943 15.922481 -35.308216
-8.781356 -5.831910 4.429865
-5.472316 -5.434956 4.218513
-5.472933 -5.450922 4.171731
-5.596268 -6.431711 11.199892
-5.763712 -6.313367 11.119434
-11.173500 -2.210975 -1.010811
-6.009536 -6.138769 10.675085
-5.947089 -6.215352 10.584410
-9.600460 -6.456179 8.055670
-16.171534 -3.179295 0.144843
-5.771350 -4.963755 5.969711
-6.617737 -5.862763 10.017468
-7.795882 -6.290265 13.528656
-110.487816 -2.947867 -434.675415
-11.263819 -3.925403 -8.563665
-10.674070 -6.073030 8.999125
-30.100941 -15.777016 -48.092415
-7.621004 -6.769815 13.996082
-10.040933 -1.360916 -4.632625
-8.237646 -6.876417 8.811364
-14.418173 -3.920969 -30.075754
-13.685856 -6.218660 5.831594
-13.940305 -5.259768 -15.718390
-10.855587 -2.274700 -2.753261
-12.498571 -7.779266 8.696896
-6.444440 -6.195351 9.850189
-8.447764 -6.488799 8.049139
-10.616862 -7.049425 4.735729
-13.593456 -7.699487 6.650645
-14.959509 -9.680063 -5.801596
-13.122691 -10.201404 -4.433842
-6.820314 -7.153345 11.315831
-13.383424 -11.648132 -5.790729
-6.992341 -5.871850 8.306997
-6.209981 -6.353776 10.792162
-14.273907 -12.534893 1.100577
-6.140118 -6.191374 8.200566
-5.756994 -6.560340 10.691504
-43.642162 -19.079842 -40.223526
-36.541691 -16.060711 -31.926159
-45.942928 -19.930496 -43.309875
-10.460044 -6.862726 -1.125116
-6.801133 -6.051017 11.623329
-43.265263 -16.990192 -32.781891
-37.916454 -15.825771 -26.936104
-40.786293 -16.544186 -30.143520
-9.006706 -6.168508 14.133574
-7.933777 -7.330795 7.069611
-22.927723 -7.838701 -42.127316
-7.999530 -6.741973 -2.717125
-20.901720 -7.564707 -36.235268
-6.229493 -6.563860 -0.323315
-7.965659 -7.446601 2.576944
-7.305025 -6.383532 12.999064
-10.046476 -6.852569 8.619783
-9.426986 -6.921105 -0.480916
-9.564653 -7.102692 -1.100035
-8.480083 -7.296895 10.675296
-5.967077 -5.561061 8.987127
-177.382660 -77.769806 -246.393982
-28.541769 -12.372265 -26.387032
-28.701319 -12.366581 -26.576267
-10.441401 -6.614944 14.557861
-5.848121 -5.533310 8.963940
-22.787977 -10.100811 -20.006865
-8.043084 -4.900044 5.458984
-6.188034 -6.819498 10.837122
-8.344427 -7.335496 9.670701
-26.574020 -8.524128 -19.874357
-5.429089 -5.509823 9.202449
-5.458655 -5.463165 9.201029
-5.572953 -6.303309 10.969284
-6.211970 -5.985035 11.490976
-9.078136 -6.431243 14.185088
-6.851975 -6.224938 12.129862
-6.181391 -5.921953 9.088162
-6.190327 -5.916689 9.076275
-9.449792 -7.866179 8.060633
-9.163034 -6.074997 14.596409
-9.183944 -6.085706 14.619653
-30.668625 -6.562433 1.062673
-6.713936 -5.522730 9.145335
-9.436312 -7.428904 8.668693
-10.310073 -6.678399 14.629949
-7.334667 -7.046886 10.392427
-7.372095 -6.323824 12.395045
-176.223022 -82.215858 -80.690765
-11.473709 -6.601761 5.396944
-23.916805 -12.514863 1.176003
-10.767149 -8.803901 10.082609
-10.271433 -9.466797 8.633411
-9.415182 -7.472836 9.242402
-9.418036 -7.489231 9.234934
-39.154442 -12.094730 -1.351454
-7.755891 -6.149651 9.011642
-5.438785 -8.964283 12.406497
-6.568380 -6.414402 11.896306
-7.444352 -7.646521 11.214858
-8.131998 -8.052519 10.326736
-6.531744 -7.211452 12.652400
-7.712673 -7.747632 11.654076
-7.710877 -7.753616 11.653927
-7.717074 -7.749228 11.653319
-8.483791 -8.187799 10.944551
-9.912466 -7.456401 7.690780
-9.487838 -7.143694 8.533824
-20.777237 -15.701467 4.804114
-18.995438 -10.572317 0.383396
-14.352200 -5.783652 20.442415
-8.816617 -7.669379 9.727987
-14.838156 -10.302204 5.511471
-14.872145 -10.329522 5.481234
-7.274992 -6.823768 10.953386
-13.556905 -15.564198 -0.719296
-7.508715 -7.226540 11.292049
-6.853710 -6.429220 10.854712
-7.990886 -7.316944 10.934936
-16.164089 -9.762658 -3.612234
-11.722342 -5.485034 -0.653542
-9.789666 -7.343338 9.729328
-9.852901 -7.405314 9.732069
-8.174047 -7.034522 10.616613
-17.329985 -16.075603 1.927391
-10.495054 -5.395327 12.279505
-71.141899 -55.868511 -90.086731
-10.791286 -5.310148 12.380312
-8.536079 -8.749332 9.685144
-7.644543 -6.993722 11.229153
-25.812984 -13.093427 3.653131
-8.527233 -7.907919 10.465992
-8.085838 -6.546659 14.620140
-46.312820 -29.848839 -40.922100
-16.674610 -2.394119 8.058043
-15.978400 -2.858147 7.519337
-37.270634 -24.900440 -19.595150
-2.734847 -15.128111 -8.985328
-9.269718 -7.051058 16.886452
-9.429391 -6.992696 16.874735
-9.272898 -7.051864 16.889181
-9.260163 -7.051343 16.881815
-8.307492 -5.814946 15.006109
-8.312009 -5.814231 15.007321
-9.783979 -7.107866 16.759420
-8.078407 -6.307673 13.243103
-8.156994 -6.312045 15.713871
-7.571606 -8.537656 9.240034
-9.692754 -7.342773 9.301186
-7.626288 -7.766336 11.406301
-8.890038 -6.925734 10.203885
-9.189195 -6.372277 14.558125
-32.804688 9.852982 -17.157692
-16.335705 -4.856003 10.354757
-16.814526 -4.690229 10.134005
-8.241053 -6.247521 12.708746
-8.209768 -6.247208 12.722631
-7.320868 -7.538337 12.238200
-7.764221 -6.849941 13.749587
-8.518781 -6.561080 15.136441
-7.985785 -7.498003 12.204975
-8.496468 -6.918360 13.567717
-15.559950 -3.156201 10.502568
-8.359559 -7.334276 11.846688
-11.691877 -9.094080 9.107458
-8.448443 -7.466779 11.864803
-9.569829 -6.726895 15.378732
-10.259071 -8.528000 8.069386
-9.371305 -6.317263 14.318837
-46.393669 -17.529425 -18.429569
-16.685965 -1.274228 6.348661
-9.419062 -7.216707 15.891300
-7.803312 -5.748357 10.747013
-9.880081 -7.110164 6.206363
-9.894630 -7.116316 6.180215
-9.377372 -7.672709 8.603476
-7.565238 -6.533145 12.206635
-7.519748 -7.074996 13.226155
-7.519700 -7.074362 13.225832
-24.277054 -12.362982 -13.038266
-16.159904 -2.003755 5.984986
-11.892008 -7.499623 15.158147
-14.660992 -3.004328 8.394732
-13.429719 -2.533300 7.784543
-13.372515 -2.430586 7.503352
-11.419265 -3.917219 9.241003
-8.907670 -6.522809 12.204828
-9.191884 -6.202359 14.424654
-26.287067 9.981613 -5.470144
-12.253611 -6.773942 15.026133
-14.393944 -1.107638 7.817934
-10.536212 -7.436784 11.374660
-10.482056 -7.388158 11.432156
-9.467518 -7.203715 10.647030
-8.896944 -7.456772 11.393686
-9.431432 -6.723559 13.693306
-10.223539 -6.657814 12.210155
-93.538017 23.651606 37.122887
-9.083176 -8.300426 9.287502
-10.828383 -7.230637 3.922575
-10.473902 -6.405120 11.470377
-12.492716 -4.616745 8.817365
-11.989683 -3.519590 9.530262
-11.988359 -3.524166 9.531609
-10.275271 -6.950708 10.175711
-9.791376 -7.771168 8.924974
-10.401369 -6.268643 16.202650
-9.184819 -6.873034 13.365838
-10.385227 -6.267964 16.196218
-10.408906 -6.265213 16.202408
-11.179178 -6.925152 16.234652
-9.965542 -7.359004 12.311807
-8.770370 -6.952564 11.083981
-10.393744 -7.066367 15.257980
-10.272879 -7.309864 13.277456
-12.217480 -7.591156 10.086225
-10.190659 -7.001495 12.857016
-9.969995 -6.835069 12.727637
-9.991162 -7.046030 12.942656
-9.933711 -6.567607 12.610790
-15.435162 -9.337879 2.272308
-9.771351 -8.059834 9.145872
-9.728485 -6.820877 13.948988
-11.866738 -7.345330 9.625335
-12.497066 -7.430678 11.142365
-9.128414 -6.934751 11.363749
-17.255676 -3.316132 17.507404
-12.326401 -6.120333 13.527670
-9.904448 -7.258526 10.389280
-12.758528 -8.608076 6.813189
-9.826035 -6.949155 11.060864
-13.779709 -6.447721 16.940855
-4.877716 -11.028584 -2.490917
-9.703750 -7.100873 12.944069
-15.208386 -6.217274 11.664360
-9.500757 -7.038436 11.626064
-9.638623 -7.262936 12.362435
-8.134028 -6.763935 12.110889
-12.877575 -8.818504 9.013536
-9.897726 -7.632725 13.904487
-16.083954 -1.903943 6.031319
-17.235237 -6.092708 11.719877
-15.134148 -7.286510 12.551757
-10.341064 -7.400021 13.138912
-10.424715 -7.792264 9.014483
-15.184317 -6.882102 11.666338
-10.499804 -7.438785 13.079018
-12.074524 -6.659454 14.368191
-10.354125 -7.219872 12.489756
-65.647812 -14.618195 -5.526582
-10.474402 -7.181472 13.572989
-12.243156 -7.726974 13.402959
-10.576232 -6.738057 10.805439
-17.507338 -9.845853 2.475843
-14.225577 -5.851370 11.118495
-14.603281 -6.111765 12.144186
-10.931665 -7.359549 12.929758
-16.171970 -8.452364 8.691763
-15.227783 -8.323679 8.745393
-16.329876 -8.535226 8.612260
-14.032655 -7.490714 9.517826
-10.638969 -7.353246 12.654482
-38.550217 11.443333 -32.278946
-16.878185 -6.299797 10.180731
-16.889412 -6.294356 10.172706
-20.341782 -8.446662 9.204716
-9.648878 -7.612031 11.695570
-9.603955 -7.677142 11.577569
-9.663725 -7.588701 11.688822
-10.362897 -7.611300 10.811340
-18.666792 -7.157147 11.787111
-10.466251 -7.389020 11.657633
-12.380800 -7.139027 12.878060
-13.731785 -6.656940 14.174320
-10.757878 -7.146021 13.195681
-16.249069 -7.321145 15.039474
-10.779772 -7.419176 11.787679
-41.004761 -8.999489 17.778450
-11.086464 -7.475313 10.527839
-36.672901 -3.329161 26.241062
-19.863792 -6.935543 14.731865
-15.662947 -7.734636 14.744676
-19.888178 -6.976052 14.704084
-10.619678 -7.120198 13.519696
-15.242636 -6.898532 12.901714
-14.881983 -7.955840 8.373642
-11.827477 -6.377820 14.808119
-21.150658 -7.127443 12.434420
-14.244137 -6.216135 13.100746
-10.730828 -7.087574 13.201694
-17.477016 31.659077 -31.824902
-17.579025 32.279102 -32.580189
-14.002604 -6.603897 7.274821
-10.720653 -7.602301 10.833952
-14.138796 -6.692482 6.544039
-5.022189 -22.205601 -25.441940
-20.752529 -10.394600 11.363786
-12.321079 -7.658434 9.970193
-12.243918 -7.527382 10.345465
-9.464100 -7.765650 11.536264
-12.392164 -7.246852 13.458023
-31.843775 -10.708303 8.696889
-20.654270 -8.715048 11.912342
-0.210314 -17.130754 -17.209789
-6.900229 -10.126012 4.423255
-12.861958 -5.967578 12.626568
-14.381437 -6.759475 15.062029
-25.280190 -12.013258 9.524982
-16.908321 -8.010363 13.181308
-17.174049 -8.245775 13.200414
-32.827496 -10.397436 9.586576
-18.977314 -8.261038 13.130082
-11.644049 -7.006547 14.204546
-17.318398 -6.424854 11.743649
-13.115512 -7.083875 14.536932
-12.865729 -6.383469 13.907089
-12.468867 -7.315075 13.667336
-10.762715 -7.662175 12.044880
-19.953997 -7.845021 11.830297
-22.504208 -7.535216 10.718067
-15.824419 -6.558713 12.243857
-18.872177 -8.068165 10.930799
-14.082249 -6.823242 14.183514
-35.316574 3.787492 -22.479115
-20.805012 -7.603712 14.518186
-13.939340 -6.445615 14.942386
-22.308252 -7.621910 11.931496
-12.815683 -7.247784 13.366899
-21.901541 -7.624591 11.961397
-67.489410 -10.465234 2.040444
-22.406710 -6.449674 12.019440
-13.675794 -5.461414 11.391724
-11.722743 -7.523314 13.329535
-14.564981 -6.368311 13.001617
-98.155022 -36.343956 4.378465
-66.906120 -9.238384 -27.783535
-14.506025 -9.909873 9.382677
-12.645398 -7.581332 13.424171
-12.044745 -7.305707 15.064425
-17.600492 -7.754925 12.277403
-27.023712 -2.401278 -3.578751
-14.177998 -7.412459 11.898623
-12.604818 -7.383744 12.240076
-17.050558 -6.909202 16.262041
-22.392874 -9.065220 10.686589
-12.612431 -7.291687 13.315527
-22.469559 -9.059937 10.650343
-25.747124 -7.427885 11.814258
-12.122610 -7.185002 13.552338
-11.837969 -5.522320 13.783591
-13.950011 -3.916215 14.344753
-18.042526 -5.974514 13.742407
-12.194798 -6.860452 13.153423
-23.847885 -6.254131 9.397749
-11.313333 -6.639635 14.830099
-15.856628 -7.443687 15.659620
-11.441836 -6.438388 15.541788
-11.447570 -6.486693 15.624985
-15.641119 -9.650270 14.433619
-957.337097 -85.645149 -169.784561
-17.692505 -8.983221 11.370094
-22.745085 -9.891181 7.690872
-12.497968 -7.493597 15.715055
-16.150927 -8.766110 16.325130
-12.164027 -6.767525 15.580150
-82.284195 -23.816330 10.175745
-11.842144 -8.072421 13.722034
-74.522682 0.525550 -62.513756
-12.022629 -8.079438 14.165178
-14.293974 -8.535630 13.181353
-25.451580 -11.486196 7.621945
-16.434879 -8.469145 12.629637
-18.864475 -8.495621 12.559306
-14.291380 -7.291895 14.528860
-19.694633 -8.123106 11.259687
-17.381685 -8.301145 13.190865
-67.078461 -16.604113 -38.691231
-15.316790 -4.531320 14.203579
-12.289110 -7.355720 13.578634
-11.854629 -7.255726 13.797503
-21.395687 -8.796491 11.641073
-21.359093 -8.794509 11.652145
-22.765327 -9.072838 9.071806
-23.869701 -7.842857 10.898922
-26.200314 -11.293873 14.004584
-11.862631 -6.235957 15.340456
-33.545601 -11.099715 16.509428
-11.864115 -6.235054 15.340196
-11.996246 -6.862842 16.443539
-11.902155 -6.269522 15.396436
-11.863485 -7.836862 14.033504
-26.653255 -10.917110 12.973784
-14.234999 -7.667390 15.752029
-26.861696 -10.829103 9.973407
-453.943298 -4136.751953 -10447.599609
-31.577984 -8.630175 18.127491
-12.413322 -6.136694 16.338718
-11.986849 -5.842883 14.953113
-26.918447 -9.140708 15.365839
-15.154469 -6.711777 13.556343
-25.238651 -9.388862 13.866488
-20.225868 -13.945213 16.979500
-14.380693 -6.201779 17.920233
-14.867245 -5.439524 11.846006
-14.863043 -5.443230 11.848945
-17.389967 -8.364637 15.283577
-438.246735 -727.494934 -517.254211
-18.453281 -4.881057 4.762322
-18.434206 -6.909373 20.444633
-19.620846 -13.965445 14.951643
-13.315689 -5.474739 11.554382
-12.932348 -6.841596 15.717108
-17.277012 -5.644619 16.421303
-17.245476 -5.654467 16.420208
-15.638387 -6.307862 15.266703
-15.426533 -6.352953 15.237793
-13.500854 -5.712086 15.441017
-22.110146 -7.643904 12.973779
-17.904615 -8.674187 12.936159
-13.069767 -7.890979 14.448274
-15.705434 -7.247947 15.457129
-15.157996 -6.815483 16.639683
-26.318157 -31.811741 -8.500006
-12.483089 -6.792504 15.034811
-13.101705 -6.679689 15.538050
-14.902045 -7.809254 16.584063
-14.898484 -7.807309 16.579245
-11.254957 -7.498603 13.679328
-23.621365 -16.539400 14.498815
-24.164932 -16.929544 14.501696
-13.761173 -5.222823 11.763002
-17.839851 -17.621645 13.221362
-19.289476 -19.530445 12.976917
-16.139599 -15.051134 13.312607
