7.602905 -0.339852 2.618794
7.811195 -0.312467 2.601276
14.513600 5.126880 -7.291805
6.555466 0.239255 -0.732706
5.562651 -0.215342 1.923951
15.808035 5.664076 -8.212790
7.241488 -1.712689 4.742938
7.816204 2.488844 -2.231880
5.782882 -0.965549 1.245285
5.782939 -0.965647 1.245625
30.859089 17.572121 -28.359484
6.491638 -2.060045 2.530040
13.473243 4.103015 -5.762697
6.067106 -1.208401 3.688194
5.880477 -1.986131 4.377188
6.068834 -1.210026 3.691108
36.396008 10.866470 -18.622749
6.006491 -1.108767 1.202572
5.738900 -2.207985 2.448559
6.457013 -3.748457 6.484849
20.909592 8.526407 -13.536180
19.095642 7.707816 -12.195898
6.288060 -3.810749 6.673096
6.179924 -3.350268 6.029075
18.942486 -26.113327 9.140589
19.567474 -27.825039 9.666053
5.647241 0.129775 0.964152
7.097912 -1.809042 5.006253
7.148533 -1.596885 4.495211
13.812223 4.052215 -5.807446
6.470985 -3.567815 6.268853
18.242020 7.378752 -11.670314
19.350410 -16.621878 -6.375840
5.610056 -1.379679 2.403838
14.937462 6.077295 -8.967589
6.396234 0.265826 -0.148181
8.316390 -1.572609 2.398812
5.860318 -2.335635 5.591646
6.503860 -2.219952 5.406123
5.817802 -0.547212 2.186162
8.556038 -7.310583 7.124544
5.553110 -2.368266 4.754260
26.068029 1.707083 -4.529290
5.485388 -1.402437 4.376737
6.250430 -2.865049 2.780349
5.625923 -1.356896 2.206577
17.162088 -24.608908 8.699393
9.369199 -3.170360 2.260451
7.634539 -3.186173 2.933391
12.195278 -4.119370 7.112498
7.356574 -3.055445 2.362061
10.444396 -3.213795 1.248310
11.292854 -2.978380 5.554712
13.085754 -2.927985 5.946568
12.078897 -3.450553 5.877241
7.461445 -1.530762 2.026412
7.396169 -0.565754 1.928146
13.656013 -4.079801 5.872818
11.544530 -4.518126 3.736849
15.039800 -5.267640 6.543579
8.978335 -0.404325 0.285416
12.019755 -5.620347 7.682519
15.862561 -4.736155 7.389363
13.694341 -4.187503 6.587872
12.984644 -3.989526 6.134011
14.041708 -4.273592 4.989366
15.103030 -3.923025 6.460726
12.319559 -6.009999 8.138408
9.927256 -4.362190 6.061563
17.300848 -5.453729 9.719823
17.632151 -7.274396 7.293655
18.191847 -5.902593 7.878823
17.950577 -5.126672 8.057439
22.855652 -7.258934 7.921522
5.764539 -1.651270 0.581456
6.513886 -0.485875 1.391918
4.316070 -1.352504 0.273118
5.259194 -1.789420 2.210517
4.179070 -1.190094 0.730833
6.173794 -1.950664 0.754294
6.184067 -2.372424 1.688702
5.291841 -1.550843 0.276138
5.305910 -1.705361 1.661386
5.113369 -1.361720 0.861407
9.235174 -3.078723 2.179356
7.480203 -2.451431 0.473265
7.191031 -2.514477 1.709570
8.673993 -2.245868 3.011645
9.728876 -3.194043 5.162294
5.443621 -1.571137 0.999075
8.339035 -1.283283 2.077082
4.676097 -1.828831 0.417212
8.050773 -2.079525 0.800639
9.131623 -3.113078 5.797406
14.790114 -6.269229 5.775963
14.605682 -6.161041 5.675936
10.836864 -4.213375 3.410804
16.121124 -6.030673 6.459433
11.308215 -2.356761 4.288999
15.387441 -6.062120 6.236801
7.400907 -1.225247 2.079236
7.945520 -1.094315 1.760938
17.644987 -6.462403 5.978476
10.989344 -0.807338 0.587186
16.181131 -5.280853 5.989979
16.533966 -4.330677 6.225409
19.527292 -7.210322 7.337761
15.209214 -4.300195 6.154059
19.633680 -7.308554 7.419251
4.950361 -1.604206 1.043762
7.409550 -2.962722 2.715973
7.179101 -1.291942 1.563264
7.493096 -1.619514 2.004368
12.417179 -5.876326 8.014451
11.874594 -5.525662 7.556394
11.385709 -5.385052 7.308089
11.654909 -5.394482 7.397666
9.185273 4.492755 -6.767878
10.947817 -2.387432 4.545362
10.579275 -3.448937 6.882967
7.562527 -1.638946 2.018905
6.925121 -1.998738 0.914127
6.913556 -2.173406 1.460385
7.879799 -3.272658 2.785423
6.961563 -2.043681 1.955728
6.366296 -2.455443 1.612710
10.095749 -2.949314 5.721753
7.564132 -2.164561 2.008773
8.295271 -1.796345 2.677467
11.208357 -4.770737 6.105467
12.205502 -5.067654 3.931024
15.105206 -5.494714 5.333587
16.321161 -6.216221 5.652467
14.580170 -5.396852 5.177348
14.248001 -4.524327 5.731433
20.626921 -6.292937 10.734167
8.253131 -2.221040 2.055385
8.169991 -1.988258 4.728193
11.706943 -1.807757 -0.277862
8.764496 -5.808273 10.749339
9.219798 -1.408096 2.758417
8.144490 -1.689640 0.921884
7.406582 -1.362278 0.577133
12.256745 -3.528706 1.775764
7.791016 -3.511331 8.301044
8.630238 -1.028935 2.644801
10.399611 -1.920478 4.218973
7.859475 -1.670429 1.247551
7.970254 -3.739102 8.069963
9.748514 -2.381875 3.929049
6.421027 -3.687680 6.490668
9.511828 -1.322698 3.094812
6.668461 -3.913148 6.754233
6.383429 -3.612335 6.390323
12.596673 -4.459146 2.095678
14.322596 -4.434234 6.994232
13.500257 -3.944337 5.873269
12.399661 -4.171716 7.373538
11.244736 -3.423373 4.397630
12.010400 -3.977855 7.068411
12.341928 -4.419156 7.034654
10.869947 -4.217379 3.030391
15.097389 -4.691401 6.559464
13.207401 -4.568144 1.865761
5.743564 1.095394 -1.368119
10.540010 -4.710974 4.362353
13.734716 -5.138499 5.306122
13.431126 -5.350407 5.169372
13.659594 -4.549321 1.280155
12.484838 -3.609640 5.085483
10.442163 -2.982421 5.856485
7.628364 -0.340436 2.640053
11.949193 -3.106764 5.030773
12.574607 -4.303971 3.856663
8.022690 -4.007655 6.501914
11.033556 -3.587219 3.925428
14.650225 -3.422773 7.243748
11.460111 -2.687587 4.829531
11.084802 -3.618618 3.951949
8.403417 -4.232973 8.924033
8.105299 -3.712591 6.639774
11.277332 -3.506416 3.219171
10.071662 -2.542092 3.753988
10.555575 -2.729608 5.369417
11.407248 -2.928734 5.259431
9.614753 -2.461644 5.314192
8.499365 -4.377477 9.139286
7.621061 -3.383614 8.013143
8.033281 -3.799833 8.787764
6.235267 -1.900581 1.678216
8.355227 -4.986762 11.218747
9.180193 -6.376873 11.662714
5.574795 -1.550617 1.214085
12.788177 -4.962098 9.966089
7.274914 -0.603211 2.712164
9.585763 -3.399509 2.911879
12.112865 -2.414193 5.392516
5.378568 -1.420382 1.111692
11.777099 -2.878079 5.028576
13.089660 -4.091980 5.815531
34.945091 -11.630480 9.226020
12.693833 -4.373929 3.946553
13.502398 -4.593833 4.541616
18.979446 -5.159902 7.262983
23.199404 -7.445738 5.387255
10.604922 -3.402404 3.591575
13.055169 -4.603273 4.242826
8.513627 -5.050502 11.791374
32.949352 -10.521416 10.129320
9.080857 -2.504431 5.181961
7.611804 -2.338306 1.684021
10.426826 -3.414424 5.683902
10.371585 -3.723824 7.053264
5.471364 0.547787 -0.476790
13.163899 -4.066338 5.465402
10.242588 -2.622846 5.049061
10.057392 -3.472774 6.747604
9.815530 -3.186047 6.399638
8.420621 -4.348022 6.750818
10.415338 -2.626724 3.505277
8.731885 -4.798326 7.456697
7.216807 2.157612 -2.960438
10.060009 -3.086816 0.719932
8.666665 -4.733723 7.382251
13.801659 -5.209061 5.440876
15.429132 -5.596435 5.417076
12.311599 -3.281892 5.248813
12.124507 -2.887481 4.723348
13.555511 -3.746384 5.997263
17.035767 -4.543041 6.799138
8.871065 0.029188 -0.285240
13.775078 -5.167751 5.415339
13.995434 -4.292674 5.402780
13.629398 -3.815729 5.323289
13.909149 -3.615603 6.371116
12.512951 -5.002681 4.380797
12.743840 -4.295264 4.696168
13.482202 -3.750905 5.277040
7.037861 -2.717837 2.571924
10.882857 -3.016878 5.442323
13.008131 -4.765324 5.005088
10.843466 -3.836250 3.765703
14.546564 -3.358883 5.929603
13.140674 -3.908034 4.947159
12.390100 -4.093382 4.546614
14.107603 -3.985622 5.648710
10.948150 -2.059216 3.209524
12.130804 -4.312536 3.216789
11.755414 -3.822047 1.486196
4.044225 -0.858161 0.509241
12.559381 -2.680621 3.978107
13.061067 -3.335014 5.689820
12.242197 -3.459511 6.901793
7.224902 -1.047667 1.775225
7.769534 -1.024141 1.790229
7.625944 -0.202010 2.193620
11.034530 -4.351012 3.097502
12.789854 -3.781952 5.377877
15.563723 -5.058358 6.267520
14.200788 -3.565250 5.938567
12.405204 -3.617787 5.050732
12.641473 -3.101802 5.059540
10.196480 -3.939571 3.821003
9.075706 -2.744829 2.697361
7.980207 -3.516991 8.031774
9.678296 -2.323477 4.736058
24.191357 -7.723668 7.425260
23.796038 9.177173 -14.648562
10.605415 2.395820 -3.493023
6.433087 -2.032248 1.615585
24.067881 -6.239443 8.755482
7.518608 -0.590055 1.738451
8.207092 -4.038283 6.648662
10.605975 -5.235065 4.928359
8.251387 -3.073731 3.134583
6.533393 -1.768561 1.351397
7.917447 -3.866726 6.362314
8.015655 -2.213297 1.669104
8.265469 -3.083096 3.151816
7.904693 -3.850348 6.328868
11.563877 -3.687577 3.363213
8.891586 -2.463363 5.584557
10.151034 -2.733288 1.353243
7.900700 -3.848504 6.330360
11.462067 -2.415521 4.898503
6.946008 -1.891235 1.926162
6.475986 -3.718782 6.409248
11.454966 -2.328598 4.500458
16.334406 -6.966604 5.102829
26.413666 -9.089264 7.468786
12.199540 -3.281929 5.145381
13.235145 -3.952960 5.197967
13.737844 -5.157528 5.402559
13.829044 -3.041451 4.420033
12.360023 -3.134002 5.629261
11.690467 -3.421659 6.260039
12.038001 -4.624828 4.347244
14.796726 -5.472647 4.928383
17.384310 -6.289217 5.658231
7.388364 -0.862483 2.064210
8.417472 -5.441623 10.658261
8.232803 -5.727937 11.421732
8.552959 -5.538431 10.267782
9.935764 -2.352989 1.992496
16.035173 5.448950 -8.343123
7.555083 -1.378816 3.626221
8.651713 -1.121811 2.931771
8.168629 -1.450898 3.535729
9.099075 -2.412879 4.436831
10.300328 -1.869028 2.108075
8.335053 -5.237079 9.783957
5.791856 -2.091650 2.094354
9.625352 -3.385006 2.771591
7.475845 -0.745155 2.148441
6.409686 -2.063764 1.816377
9.477533 -2.611482 0.809277
12.523494 -3.713906 5.176766
10.600451 2.307195 -3.452404
8.492519 -4.323301 7.201941
9.154976 -3.119416 2.456750
8.464081 -4.007564 8.871543
7.986917 -3.928071 9.109615
9.070238 -3.069849 2.393852
8.829644 -3.621144 8.302197
8.421176 -3.319905 7.507939
12.560871 -3.753362 5.135371
9.591105 -2.856936 1.113736
13.032394 -4.793453 4.231012
8.489934 -4.533526 7.192453
7.649574 -0.648792 1.718746
14.144443 -4.882580 6.686466
20.307039 2.883760 -14.933769
7.355752 -0.562209 1.912264
7.405531 -0.922574 1.975063
15.884313 -4.517323 6.839052
14.042260 -3.403375 5.324355
13.123979 -6.639592 9.110611
11.661967 -4.513447 3.918229
12.570720 -3.122230 5.526038
12.628377 -4.224157 4.636425
13.042103 -3.770573 6.260361
12.963226 -2.810749 5.064159
10.870105 -4.012144 3.812673
8.503207 -4.302372 6.812365
9.340168 -3.575807 3.357429
10.600179 -3.772856 3.550618
13.372321 -4.793259 4.126272
14.719088 -4.518299 5.263122
9.134907 -1.409815 3.398728
5.413496 -1.454171 1.129629
12.663922 -3.099229 5.000593
8.351418 2.426152 -3.366715
11.469770 -2.743937 4.795569
10.640535 -4.093863 3.237582
12.802691 4.290896 -6.406854
8.455330 2.528176 -3.493403
9.984396 -6.303554 11.745130
7.609079 -0.060437 0.074091
8.891890 -4.580760 9.736742
7.481319 -4.143339 7.943662
12.718886 -4.397135 8.622355
5.491981 -1.688241 1.219826
9.737720 -2.493478 0.227472
8.440221 -4.089030 7.291969
10.755634 -6.425282 12.233463
11.702559 -3.859720 7.661404
9.230057 -5.154938 10.504787
11.061622 -4.862416 4.640028
15.082749 -4.609432 5.555450
14.106002 -5.070236 4.939857
7.848873 -1.712498 2.311022
18.436001 -6.024747 4.116658
22.346390 -7.491208 5.021428
15.701944 -5.663005 4.506375
39.336269 5.029329 -29.795422
32.463665 -11.548257 9.417466
7.646879 -0.483000 1.831525
13.556062 -4.726624 4.681453
10.073432 -0.241017 0.018145
7.530631 -0.918827 2.029408
11.041088 -4.306208 3.984111
26.461985 -8.319033 6.631678
10.150711 -3.704529 3.081120
17.129608 2.558303 -4.722460
21.328833 -0.906391 -5.078302
35.184711 -9.949146 13.051946
13.653969 -7.037302 9.618416
13.305443 -6.780118 9.276100
13.092000 4.104373 -4.603105
6.464494 -3.725328 6.577641
6.454235 -4.036889 7.058346
6.500137 -3.819380 6.714013
12.512952 -1.911720 3.632934
7.975686 -2.484441 1.766541
7.583325 -3.083124 7.263914
6.333809 -3.859635 6.789203
6.322955 -3.838644 6.757444
31.289915 3.591684 -7.793249
8.799800 -1.715780 1.043015
6.562993 -3.726733 6.576237
7.003409 -1.228674 0.276502
7.946516 -1.878210 4.625564
7.792411 -4.746925 10.754748
12.950668 -4.556322 4.496246
30.225780 -10.270958 9.798005
35.969971 -10.402627 14.141053
30.890221 -9.368849 9.775750
29.929911 -7.931849 6.812345
8.062392 -0.906074 1.703632
14.671165 -5.051763 4.573011
8.173816 -3.269827 7.022117
35.675243 2.872668 -7.420939
29.272755 3.242495 -6.985645
10.496598 -2.698666 4.008205
16.299414 -10.140269 9.234619
30.977764 2.841599 -5.925124
7.502109 -1.005940 2.071340
7.695585 -3.609828 8.622850
22.723978 5.013842 -8.353366
15.316959 2.615956 -4.385368
14.410250 2.509452 -4.120282
10.026008 -3.089973 2.803772
6.975456 -1.518952 1.216614
20.757313 11.084419 -17.015476
16.928162 3.731320 -5.826728
34.044521 18.618877 -29.277044
16.967825 3.729283 -5.844121
8.077222 -4.983816 10.971363
6.530695 0.093016 1.331547
61.770554 10.915527 -22.544977
10.198410 -0.622806 -0.116485
10.759413 -0.994390 -0.337199
6.294032 -0.387840 -0.069297
6.406400 -0.567391 0.223185
6.543783 -0.992496 0.901948
8.521951 -0.925251 -0.163853
7.326431 -0.234390 -0.791420
6.185032 -1.617136 2.241753
6.464281 -0.782445 -0.028373
10.284534 -0.740590 -0.266861
5.815505 -2.650647 2.538863
14.583724 -2.892555 4.497349
11.897413 4.469206 -6.491673
15.094462 -4.182075 3.466208
15.715085 -3.254415 4.793382
20.651628 -6.317842 6.020977
8.355694 -5.353402 11.000235
8.326989 -5.125173 11.015592
16.192944 3.634375 -5.886481
19.157375 -6.035062 4.891329
21.139053 -4.928519 7.787882
7.562930 -0.659191 2.180592
32.085369 -8.859939 11.039097
9.653853 -3.700384 2.522509
24.324253 1.416239 -3.824138
17.421926 -3.530635 6.014067
11.337279 4.186833 -6.068679
6.953875 -1.032231 -0.014716
6.978905 -1.045369 -0.010964
11.846270 8.565612 -12.260098
8.059546 -3.443521 6.659549
7.566890 -0.810447 2.110655
8.395471 -5.246164 11.169875
10.515860 3.033066 -4.320502
35.762688 2.861190 -7.455385
6.995736 -4.971066 9.014565
10.277753 -3.533554 7.727923
7.605323 -1.293479 2.178982
19.352257 -2.526956 2.161210
6.519361 -3.844335 6.712739
14.910163 5.965789 -8.966567
6.041421 -3.711460 6.627507
7.144368 -1.794769 4.988583
6.143340 0.153271 0.989902
7.217553 -2.516296 5.468357
6.568425 -0.714693 0.130550
7.232192 -1.169107 3.191407
12.646274 -1.142897 0.283294
11.069020 -0.865398 -0.089855
6.810702 -0.756442 2.629138
7.259155 -2.938916 5.122431
7.367882 -2.893128 6.787516
7.029237 -0.839883 2.215087
7.228928 -2.898416 5.056590
7.166110 -2.008400 5.319406
12.147100 -1.816698 0.034186
11.184616 -1.508783 -0.292207
5.851744 -0.585646 0.024879
6.831040 -0.787226 0.429389
6.722952 -0.238789 1.869531
6.393080 -3.866817 6.632127
6.071373 -3.852433 6.639177
6.549592 -4.390581 7.360598
6.387128 -3.828003 6.551558
6.246061 -4.041876 7.019760
7.624564 -3.560233 0.273122
13.631715 -10.372212 -2.480302
7.607239 -5.019080 4.464675
7.152548 -5.134793 2.802196
7.327642 -4.708840 4.209801
12.217714 -5.452697 -1.950107
11.691754 -5.191098 10.428181
41.961872 30.016659 -48.955467
6.083822 -3.783947 6.730459
5.567776 -0.556219 1.668868
14.343528 5.126931 -7.620204
6.074450 -3.741520 6.664504
6.681472 -1.221775 3.838728
15.384061 5.659309 -8.558092
14.487695 5.150066 -7.324752
6.069006 -3.717279 6.627861
17.219118 6.361767 -9.401821
7.450375 -3.729771 7.058542
8.090842 -3.995465 3.918298
20.211914 -3.870309 2.549196
6.193413 -3.508564 6.262030
6.558610 -3.617356 6.346441
6.414421 -3.610343 6.466871
6.884970 -1.653850 4.689728
14.299189 -3.209271 2.249053
6.450024 -3.652446 6.473253
7.107180 -2.522213 5.792716
13.942285 4.354237 -6.100606
14.839210 -7.601879 -4.369109
18.109205 -3.201505 2.238828
15.147394 4.734918 -6.807706
11.708743 3.512152 -4.624619
12.230607 3.983143 -5.333233
7.120817 -2.857606 1.819639
6.306915 -3.520853 6.173037
7.180819 -1.396896 4.099509
6.936607 -1.873779 4.747684
8.066797 -2.802632 4.150153
6.309514 -1.611062 1.276240
6.391580 -3.474590 6.106622
23.516571 8.196806 -13.450257
27.384241 6.002105 -11.056484
26.172430 11.194909 -18.278118
6.130220 -3.079811 5.688901
17.569040 7.120670 -11.072273
19.709850 8.070262 -12.920901
5.650208 0.138255 0.795072
8.481043 -6.355757 11.470379
7.789052 -3.103437 7.327555
17.668175 5.751630 -9.108570
6.929718 -4.857507 8.244303
6.886376 -4.781412 8.129970
8.533504 -2.008414 2.408480
7.599329 -2.418388 6.292599
7.728738 -2.405743 6.205417
6.597275 -3.791112 6.670419
6.677262 -3.920370 6.805172
7.796311 -2.469388 6.327139
7.547030 -3.440556 7.928776
7.893160 -1.154912 2.675298
7.156164 -1.612141 1.198629
7.872722 -1.930257 1.849012
8.270775 -5.454518 11.584336
8.348957 -5.817374 11.525146
16.331577 3.540509 -5.793108
28.269028 6.393102 -11.548765
16.737743 5.463308 -8.545362
10.097993 0.988075 1.173152
6.262596 -4.095548 7.092248
10.302851 0.974037 1.223373
11.607034 -2.074796 0.480032
7.124173 -2.475184 4.989675
10.360967 -1.201587 -0.269170
12.339546 -0.574970 1.269608
5.436338 0.152965 0.613756
10.571291 0.948912 1.272793
5.232420 0.548971 0.332328
10.765459 0.954114 1.320819
12.678283 -0.932954 1.188797
8.628555 -3.418619 4.828525
6.944076 -1.613994 4.500384
6.564011 -1.419789 4.076325
6.354761 -0.282766 -0.274120
6.232182 -0.188388 -0.245087
6.466734 -0.569371 -0.096912
6.412569 -0.513903 -0.113706
6.323907 -0.333368 -0.312827
6.068709 -0.477340 -0.110162
5.791366 0.547263 -0.512813
8.121904 0.209453 0.517075
6.324309 -1.487297 1.126772
6.081503 -2.751141 4.737635
6.302902 -1.491769 2.077730
7.085271 -2.088948 5.162643
9.836084 -1.889781 0.609316
7.297323 -1.717661 4.777531
21.060217 6.098705 -10.276966
7.232803 -1.652818 4.653866
7.054727 -0.920936 2.781396
12.214396 -2.361153 0.550708
6.483752 -4.049400 7.109385
6.320778 -3.762550 6.679830
6.330437 -3.800183 6.702693
6.328521 -3.795100 6.705185
6.555791 -3.813893 6.634992
6.330487 -3.799429 6.706581
7.273391 -1.545684 4.411222
6.548365 -3.811128 6.647952
6.502620 -3.773174 6.682052
6.163040 -0.548695 -0.093345
5.577610 -0.668653 0.994849
7.243845 2.161700 -2.287748
8.711149 3.432877 -4.488066
14.715466 4.404341 -6.686291
5.821248 0.538824 -0.476909
5.923928 0.505708 -0.486744
6.364824 -0.879859 -0.222928
6.350131 -0.871847 -0.199299
5.825765 0.536883 -0.479654
5.938426 0.501215 -0.494929
5.912830 0.509149 -0.480479
5.827242 0.534824 -0.431616
5.806116 0.542998 -0.467356
5.262404 0.497657 0.307562
5.967928 0.489304 -0.509818
5.956338 0.492943 -0.503299
6.517990 -0.664679 0.213293
6.467294 -0.600146 0.089397
6.461996 -0.647096 0.062901
6.487410 -0.740590 0.151032
6.074949 0.472564 -0.690481
5.893483 0.524836 -0.566930
5.816993 0.539473 -0.504727
5.836195 -0.903855 0.692788
6.495590 -0.749548 0.152133
6.454694 -0.555554 -0.097580
6.475266 -0.611617 0.044861
5.726749 0.567905 -0.429914
7.887053 -1.333538 0.625256
6.068598 -0.475574 -0.111519
6.321200 -0.209072 2.012134
6.884921 -1.984035 4.704025
6.266588 -2.888407 4.836864
5.876067 -2.219734 2.419278
5.899938 -2.320282 2.491300
6.062411 0.382049 -0.228019
6.282269 -4.011283 6.900127
6.424825 -3.411622 6.074386
14.577996 -1.908442 1.454260
6.883332 -1.931908 4.644500
8.090761 -2.470620 3.578236
6.910936 -1.914346 4.514567
6.292335 -0.051453 1.754408
7.139001 -3.048537 6.095379
6.829681 -1.918815 4.621206
6.158234 -2.170604 2.331361
6.251370 0.300687 -0.428387
6.097538 -3.034465 4.904198
7.502952 -1.695653 1.451488
6.246754 -1.708221 2.445474
11.451176 -2.694778 2.407115
6.792310 -2.115547 4.150845
6.180569 -2.235832 2.375975
9.846324 -1.772358 1.375048
9.297840 -0.715432 0.043020
6.798257 -1.545320 4.420489
11.966353 -0.676987 1.141629
5.998536 -2.941684 4.704586
9.398353 -0.509491 -0.145011
7.701839 -4.574519 2.388472
6.463324 -0.660058 2.791569
6.882946 -1.414423 1.147891
9.944872 -0.940056 -0.009177
7.265055 -2.095518 2.586819
9.744408 -1.732723 1.352575
11.987904 -0.697953 1.125194
6.112398 -1.399312 2.165412
6.164434 -2.188179 2.342577
2.794095 0.239428 0.729052
2.804082 0.303114 0.800554
2.809487 0.106948 0.710187
5.132467 -1.566733 1.160474
6.023510 -1.817477 0.684530
4.360430 -1.306352 0.811950
5.008172 -1.484393 1.022736
5.288640 -1.689678 1.256920
6.388747 -2.408617 1.793886
3.926081 -0.892536 0.526649
4.461595 -1.130858 0.720416
5.390551 -0.929570 -1.644318
5.411288 -1.795534 1.274942
4.550166 -1.802431 0.343579
5.971880 -2.000744 -0.208966
5.145110 -1.579967 1.166894
5.081727 -2.054762 0.620562
5.366058 -1.399387 0.469888
3.597170 -1.112137 0.449083
4.986948 -1.436235 1.397822
4.860583 -2.277512 1.286553
3.575155 0.192188 1.252249
3.629951 -1.135431 0.161533
4.472016 -0.491357 1.478971
5.004706 -2.091344 0.458294
4.427958 -1.391422 0.331797
3.617838 -1.120952 0.408103
3.722213 -1.332888 0.506720
5.041110 -2.226024 0.377388
3.606150 -1.180717 0.432347
3.659703 -1.190623 0.495862
4.623906 -1.648242 0.301165
4.830629 -1.860186 0.284147
5.212383 -2.320477 0.554036
4.681730 -1.769317 0.414909
4.709660 -1.973902 0.895693
5.328074 -1.501325 0.924983
4.812716 -1.984864 0.292778
