-4.070326 -1.048834 -0.655389
-4.415902 -1.879582 -0.445362
-3.892226 -1.327766 -0.180553
-1.249669 0.200639 -3.475413
-0.778879 0.898902 -2.885102
-1.568651 -0.256820 0.588086
-1.855422 -0.276243 0.545555
-1.341466 1.278615 -2.871548
-2.427197 0.280749 -3.475860
-1.248079 0.203384 -3.471861
-2.364368 1.237188 -3.153759
-1.465182 0.000213 -3.925220
-6.627455 -1.449054 -0.388896
-3.903544 4.673755 -6.248994
-5.032561 -0.071174 -2.740274
-5.089622 -0.920547 -0.709423
-4.930292 -0.341776 -2.690780
-4.207208 -0.844712 -0.412762
-5.101527 -0.824768 -0.965200
-4.239677 -0.879488 -0.397519
-5.234471 -0.490944 -2.933611
-6.155351 -1.133788 -0.435762
-5.013978 -0.069268 -2.723767
-5.818367 -1.195822 -0.981206
-5.939927 -0.755671 -7.543016
-5.711224 -1.122690 -0.772096
-4.545608 -1.406715 -0.200959
-6.730250 1.037501 -2.416107
-1.606217 -0.263704 0.566301
-6.826958 -0.838653 -2.397038
-9.543162 -1.467075 -4.313735
-3.584153 0.360224 -0.491824
-5.097357 -0.914759 -0.755701
-3.789791 0.023247 -3.419515
-4.256159 0.323136 -0.764665
-16.739212 -2.912048 -5.424124
-5.316903 -0.899975 -0.803698
-7.230482 0.583008 -2.204990
-6.968536 0.652455 -2.191105
-6.273835 -0.629910 -1.437373
-6.653164 -1.527863 -0.449909
-6.242876 -0.774320 -0.892909
-8.166043 -0.436330 -3.346821
-2.384218 1.206218 -3.176454
-1.247917 0.597011 -3.275900
-2.337832 1.176128 -3.169112
-2.448845 1.290528 -3.203035
-2.600156 1.246446 -3.294005
-2.249511 1.331375 -3.109818
-2.328149 1.312900 -3.190712
-2.335713 1.290106 -3.123336
-3.915025 1.414804 -3.979437
-4.087955 1.442457 -3.958790
-5.390703 -1.201436 -0.722972
-8.334716 0.278613 -3.282819
-8.761558 -0.588454 -3.672248
-9.901347 -1.732485 -3.417569
-10.331531 -0.574974 -3.982128
-8.169146 0.082177 -2.043182
-10.204453 -0.272136 -2.950480
-4.884969 -0.563033 -2.810695
-27.302349 -2.174814 7.351913
-3.904329 -1.052259 -0.634211
-13.084506 -2.522108 -4.872378
-8.852888 -1.608830 -1.493370
-3.785672 -1.042044 -0.630460
-5.788385 0.340041 -3.104688
-9.302524 -0.139245 -1.989372
-17.947489 -1.576162 -7.052522
-8.184942 -1.849525 -1.328913
-5.495754 -0.886577 -0.572273
-10.745810 -0.837366 -4.193416
-4.053337 0.296523 -0.497288
-8.995701 -2.174166 -1.329405
-15.536657 -11.586422 1.668728
-7.632265 -1.031832 -1.099099
-8.405886 -1.467973 -1.476628
-4.827032 -0.352886 -2.632826
-7.831039 -0.854373 -3.238274
-8.535903 -0.884395 -1.119694
-10.053719 -16.134455 3.192091
-5.162164 -1.003936 -0.702215
-14.553169 1.073815 -4.444382
-11.113990 0.882520 -3.424881
-8.980938 -0.008640 -2.288083
-7.300053 -0.186713 -2.884286
-10.713725 -0.901099 -4.453210
-9.778847 1.403271 -3.491277
-7.873787 -1.277421 -1.435420
-5.919912 -1.355189 -0.747346
-11.597832 -2.946637 0.300905
-7.118813 -0.432043 -1.386763
-9.464527 -1.277403 -3.921327
-3.901819 4.945588 -5.023553
-11.347326 -0.763577 -2.762255
-8.433084 -0.719339 -1.502768
-21.296576 -23.521809 9.660115
-2.514025 1.329315 -3.187207
-2.468204 1.230382 -3.206258
-2.507379 1.235012 -3.224303
-2.351561 1.230750 -3.178296
-1.325302 0.573955 -3.350409
-0.777905 1.706344 -2.188708
-1.217320 0.766458 -3.140730
-4.916410 -0.465924 -0.608180
-10.813003 -0.876259 -4.242928
-14.363426 -1.563845 -4.421404
-12.066595 -2.209034 -3.657283
-6.969339 -0.156499 -0.567855
-5.714377 -0.278669 -3.331373
-8.801804 -0.569560 -3.680980
-6.855342 -0.144437 -0.698130
-9.995274 -1.566190 -3.645879
-9.138124 -1.591917 -1.814039
-7.796751 1.072927 -3.023828
-5.585590 -1.319984 -0.632916
-5.691792 -1.433862 -0.647604
-9.917372 0.269524 -3.892685
-479.332458 -37.905079 -99.048447
-7.529484 -0.271534 -0.801765
-9.332788 -0.607181 -1.454813
-9.262882 -1.360647 -1.305872
-5.702939 -1.369431 -0.592510
-13.618950 0.765980 -4.000657
-7.469086 -0.144875 -3.762398
-10.376620 -1.712429 -3.773595
-9.960608 -1.861831 -3.851826
-5.349103 -1.287970 -0.841561
-5.520388 -1.250437 -0.625492
-7.043209 -0.137354 -3.846823
-11.033147 -2.222287 -4.279602
-8.993372 0.385939 -3.512296
-4.493383 -1.150878 -0.237005
-10.758720 -0.808226 -1.651595
-9.970510 -0.676072 -0.792961
-14.838965 -4.437026 -1.517816
-9.675539 0.240417 -3.622949
-15.298548 -1.584100 -2.022497
-8.904370 -0.207124 0.233214
-10.329626 -0.619735 0.057812
-10.285210 -0.379251 0.424688
-18.723845 -1.235230 2.601928
-15.526455 -0.844097 2.389539
-0.088729 1.050521 -2.722038
-0.827083 1.712630 -2.660688
-6.460449 -0.069388 -0.292919
-8.129205 -0.142900 0.248132
-4.482250 0.023970 -3.369321
-6.144606 -1.391090 -0.704772
-14.237587 -0.724404 -2.782352
-7.104970 0.352308 -2.740765
-16.161560 -3.055896 -2.097974
-14.311321 0.336905 -4.078097
-15.828633 -3.189512 -1.603663
-12.675577 -0.871311 1.732965
-9.937198 18.480661 -23.493227
-15.802823 -1.827469 -4.857063
-6.780075 -1.784841 -0.677598
-13.753660 -0.232473 -3.472865
-7.071250 -1.840935 -0.622512
-12.524972 -0.474129 2.804360
-8.215711 -0.876882 -1.229849
-12.950591 -1.986819 -4.394598
-18.621431 -4.030296 -1.720716
-17.828592 -2.642816 -2.585428
-1.075981 0.802108 -3.090654
-3.988278 -1.461301 -1.145816
-3.594208 0.058060 -3.263594
-4.515331 -1.382232 -0.224168
-4.480231 -1.246282 -0.322092
-5.743352 -1.217744 -0.749786
-5.297053 0.018410 -0.915892
-3.657953 -1.209237 -0.274128
-0.751277 0.194565 0.854382
-1.469237 -0.254664 0.579120
-1.245296 1.375991 -2.841571
-2.421403 1.232961 -3.246613
-2.416129 1.346307 -3.169344
-2.153894 1.269412 -3.102201
-0.829414 1.649351 -2.654488
-2.479250 1.302901 -3.191419
-3.099230 0.107056 -3.847521
-1.441316 1.291684 -2.958969
-1.499252 1.183051 -2.990858
-2.747692 1.287974 -3.347250
-2.519645 1.253151 -3.256208
-10.238346 -2.171843 -1.532107
-5.478819 -1.310135 -0.658185
-4.262020 -1.069300 -1.197595
-10.290374 -2.028380 -3.627936
-10.265423 -1.366784 -3.425665
-10.571272 -0.629005 -4.101551
-6.367079 -1.058126 -0.591517
-5.908789 -1.123481 -0.490270
-7.925442 1.174311 -2.841646
-9.150336 -1.647462 -3.230809
-6.711791 -0.984730 -0.872393
-5.000771 -1.350591 -1.068551
-10.487345 -1.619331 -2.853486
-10.965205 -0.890495 -4.299475
-4.107597 -1.570274 -0.490142
-7.120887 -1.383633 -0.510641
-3.273997 1.007118 -2.737823
-7.878238 -1.399527 -0.835881
-10.886909 -2.874870 -1.363080
-7.234941 -0.501126 -1.379958
-8.166423 -0.933340 -1.460691
-8.964990 -1.516747 -1.849686
-5.031826 -0.649408 -0.609027
-5.521260 0.810932 -2.161781
-8.056116 0.290594 -2.320158
-5.892123 0.108756 -0.493069
-4.250818 -0.894841 -0.348305
-10.727180 -2.803226 -1.370676
-5.279531 -1.194247 -0.644345
-56.998978 -0.849519 -14.661945
-8.387415 -0.137588 0.246652
-6.571093 -1.657367 -1.139011
-5.958079 -0.896260 -0.643004
-5.007142 -0.394795 -2.805648
-6.185129 -0.004809 0.353030
-9.691113 -1.653822 -1.583095
-6.613463 0.102658 0.236703
-5.507375 -1.144734 -1.013762
-11.402852 -1.615165 -3.774206
-1.513765 -0.258500 0.584401
-46.714375 -3.602531 14.994604
-1.286957 1.431476 -2.855066
-1.376831 0.568011 -3.381833
-1.332240 0.571961 -3.354481
-1.266275 1.280900 -2.923570
-0.997633 0.807400 -3.080289
-2.678169 1.209556 -3.328327
-1.178512 1.648872 -2.682196
-4.463307 2.016924 -2.621914
-2.231444 1.265798 -3.226668
-7.813146 -1.287117 -0.858377
-9.389969 -1.420465 -3.521165
-5.815331 -1.771213 -0.588280
-9.820312 -0.609663 -2.988385
-6.553123 -1.364896 -0.352189
-7.617051 -1.492159 -0.413076
-3.546279 2.718209 -3.842455
-19.559534 1.428651 -5.918327
-5.714126 0.256465 -1.313685
-6.434297 1.263042 -2.913665
-4.147824 -1.802767 -0.413981
-5.968204 -1.062189 -0.448223
-5.953039 -0.341710 -3.504007
-27.000584 1.841842 -8.099874
-6.995281 0.038256 -1.663441
-3.743093 1.667356 -2.617951
-4.301886 -1.042591 -0.387614
-5.988554 -0.349785 -3.532935
-9.006609 -1.599566 -3.119349
-3.250138 1.228217 -2.849372
-8.805396 -11.957694 2.378260
-6.295287 -1.452719 -0.694584
-6.239929 -1.491548 -0.956696
-6.671735 -0.524571 -4.057976
-7.317641 -0.327759 -2.994410
-4.353450 -1.055651 -0.328423
-8.779792 -0.009224 -2.261307
-11.814189 -2.144155 -5.269051
-6.516187 -1.343497 -0.367702
-7.258046 -0.656104 -1.121969
-1.239802 1.308124 -2.890817
-5.159363 -1.396323 -0.622103
-10.979641 -2.453510 -1.586896
-6.274632 -0.032756 -3.346139
-10.033293 0.363596 -3.899881
-10.057941 -2.605178 -1.274193
-8.970659 -0.515258 -0.770820
-14.323813 -3.078749 -1.931214
-9.078784 1.783827 -3.631401
-2.402375 1.348256 -3.156826
-4.540480 1.501836 -3.071818
-4.026745 -1.728918 -0.477764
-8.758370 -2.139478 -1.352474
-545.091919 -72.021049 51.228756
-18.502972 -3.247074 -1.288747
-6.277678 -1.640177 -0.746132
-16.890875 -1.581652 1.041976
-9.317286 0.362765 -3.617539
-5.590824 -1.676700 -0.564127
-9.226666 -14.522250 3.052079
-24.345970 -0.177220 -6.287196
-8.460422 0.288222 -3.278836
-11.243694 -19.907681 4.272878
-1.141118 1.087034 -2.976748
-2.553517 1.225710 -3.269125
-2.545104 1.235330 -3.256013
-1.240596 1.333173 -2.877759
-1.212469 1.330045 -2.862299
-7.981740 -1.474643 -0.817223
-16.514259 0.780217 -4.707116
-4.068301 -1.479517 -0.535855
-6.676260 0.175893 -1.417308
-8.665549 0.010609 -2.187148
-4.418847 0.038577 -3.277992
-7.274163 1.052352 -2.583752
-8.955107 -0.064623 0.767909
-16.576900 0.823438 -4.773486
-8.571221 -0.200829 -0.032543
-16.818075 2.274037 -6.850712
-6.449903 -1.552584 -0.701724
-8.625099 -1.618687 -1.450729
-9.406813 -0.670397 -3.913930
-12.092805 -2.018771 -5.009834
-10.647596 -0.606574 -5.973618
-2.257855 1.276298 -3.153905
-1.273381 0.597636 -3.265849
-7.966360 0.254425 -2.994440
-8.003548 -2.265714 -0.572828
-3.953954 -1.378961 -1.141130
-4.147973 -1.729384 -0.482804
-8.414317 0.261754 -3.179448
-4.870200 -0.537242 -2.455059
-7.677455 -0.047846 0.084725
-4.468671 0.008903 -3.333750
-14.966887 -2.221643 -1.951350
-16.452471 -1.737755 -0.114991
-9.756563 -0.715034 -3.840909
-10.947453 -0.677908 2.207727
-14.592336 -2.556057 -4.371992
-8.485814 1.760284 -3.380363
-7.133782 -1.811326 -0.702310
-6.105947 -1.627582 -0.596610
-14.349987 1.186282 -4.294493
-16.950678 2.739579 -5.870371
-3.795185 -0.420100 0.501183
-22.521509 0.418020 16.317892
-0.467434 1.059893 -2.922444
-7.877339 -0.166389 -3.853986
-5.115494 -0.430613 -2.861116
-3.558757 -0.312137 0.322856
-3.635911 0.044085 -3.307854
-6.069695 -1.166720 -0.534461
-9.707107 -1.410499 -4.019254
-7.900559 -1.050750 -3.528323
-99.332199 13.316767 -33.328621
-7.346684 -0.373554 -1.335486
-15.684945 -2.636910 -5.164547
-16.820820 -0.309921 -4.419364
-19.592176 -1.993401 -4.386655
-10.249535 -0.878057 -3.251900
-9.854594 -1.318842 -1.814901
-12.143093 -2.208525 -1.522266
-9.672796 -2.426780 -1.299872
-5.982738 -0.364013 -3.554059
-12.050520 -1.567441 -1.764705
-8.019140 -0.123145 -0.076200
-17.494041 -3.036143 -2.791955
-13.956172 -2.811389 -1.567818
-13.708799 0.342092 -4.097355
0.556721 1.841088 -2.224943
-10.905644 -0.894520 -1.675594
-20.745663 -1.979104 2.492267
-11.590924 -0.487970 0.665450
-12.036565 -2.092803 -3.520401
-22.642942 -2.538167 -5.109216
-11.463847 -1.348068 -2.935567
-17.407143 -2.582321 -2.616689
-14.974209 -0.553161 -2.266434
-4.046766 -1.526274 -1.137421
-2.146116 1.344973 -3.134674
-13.196676 -1.193128 -0.812541
-5.851724 -1.272247 -0.544950
-9.707153 0.200245 -2.789802
-3.771686 -1.245897 -0.197922
-3.136835 -0.324753 -2.714297
-4.501124 0.177763 -0.388778
-3.768407 -0.684654 0.752211
-7.423745 -1.871255 -0.451783
-5.945203 -1.336014 -1.267294
-4.117074 -0.737336 0.826616
-1.217198 1.427784 -2.816832
-157.550140 -18.343321 35.933273
-4.720566 0.290215 -1.266669
-8.073583 -0.277411 -0.459792
-7.555381 -0.203406 -0.704843
-17.768831 -3.540667 -1.742360
-14.930213 -2.523485 -2.529420
-14.677709 -2.883016 -1.583401
-11.367521 -0.909225 -0.766082
-13.134630 0.015724 -3.577614
-0.106880 1.049445 -2.758551
-1.051675 1.239540 -2.786836
-2.556715 1.212413 -3.288050
-2.611217 1.284238 -3.330285
-2.103020 1.302407 -3.059074
-2.266017 1.288214 -3.146398
-1.977283 1.343996 -3.052771
-1.928088 1.172412 -3.067049
-6.589530 0.258404 1.073906
-6.191801 -1.288527 -0.463196
-4.220537 -1.276005 -0.686487
-1.923747 1.319120 -3.028933
-1.149230 0.174613 -3.430888
-2.014600 1.227566 -3.060925
-5.020879 -1.736918 -0.542566
-6.059986 -1.232628 -0.488052
-3.669720 -1.191295 -0.291533
-3.951264 -1.392385 -1.155317
-7.451042 0.571137 -2.334556
-3.754675 -1.292316 -0.262242
-5.829716 -1.183159 -0.571702
-3.684618 -1.218535 -0.283843
-4.534557 -1.300608 -0.328683
-4.322364 -1.552696 -0.135257
-5.768533 0.919306 -2.161231
-5.207841 -1.181199 -0.836839
-7.296573 -2.219179 -0.689180
-3.639131 0.052180 -3.306824
-7.456957 -0.781479 -1.163211
-8.162815 -1.779644 -1.323472
-8.001877 3.281650 -4.465082
-2.356978 1.340372 -3.144775
-1.331002 1.198422 -2.910753
-5.938821 -1.493487 -0.849519
-2.310430 1.301295 -2.527024
-2.093080 0.019020 -3.156676
-1.856511 0.384993 0.510446
-2.201086 1.175396 -3.129171
-3.860659 0.054994 -3.232874
-5.736454 -0.260460 -1.331732
-6.096777 0.007179 0.424289
-4.093198 0.059653 -3.180014
-10.096244 0.340451 -3.048272
-1.189178 1.334653 -2.850399
-1.137221 0.107379 -3.533944
-2.646565 1.244871 -3.268230
-7.142685 -0.832998 -2.766695
-2.534492 1.340351 -2.413969
-11.343645 -1.350525 -1.976601
-4.118620 0.046549 -3.248906
-17.322144 -1.631918 0.118943
-6.194016 -0.886637 -0.423831
-15.581751 -1.793253 -4.875082
-12.352738 0.158233 -3.602465
-16.292336 -1.699638 -2.088047
-17.546026 -1.029411 -4.906313
-16.650709 -1.582592 -3.901648
-25.325012 -5.093024 -1.481791
-9.442234 -1.393655 -4.072069
-1.176216 0.093550 -3.554084
-1.149560 0.104133 -3.534361
-4.461185 0.028703 -3.370358
-3.710075 -1.278244 -0.243653
-8.825833 -1.280780 -3.964042
-29.960382 7.529287 -11.134357
-5.230681 -2.518984 -0.414850
-4.720111 -1.336036 -0.668993
-10.146869 -2.515253 -1.369164
-11.345037 -0.258408 -4.279377
-5.458735 -0.486459 -3.020777
-3.412655 -0.170819 0.214466
-12.778916 -0.930401 -3.119755
-5.653924 0.880180 -2.391058
-12.837100 -0.431605 -3.492705
-19.860418 -3.007245 -4.660585
-4.000927 -1.443504 -1.163419
-9.812573 -1.851342 -1.172468
-17.306759 -2.873691 -2.052752
-8.748335 0.631648 -2.696789
-21.551844 -3.318113 -4.903127
-7.225375 -0.174423 -0.087708
-4.002319 -1.445996 -1.150172
-18.075962 -2.678897 -4.009276
-8.894086 -0.615451 -0.949712
-2.352882 -1.220198 -0.501800
-3.985968 -0.107147 -3.203415
-3.222704 -1.252669 -0.658256
-4.622478 -1.947672 -0.044911
-2.253340 1.320077 -3.075339
-2.397199 1.241842 -3.143257
-2.190842 1.306597 -3.059229
-3.784847 -1.269364 -0.188278
-3.629128 -1.194808 -0.284351
-3.989961 -1.254986 -0.843393
-4.788969 0.241333 -0.101692
-8.749826 -0.557364 -3.609784
-16.757584 -0.744317 -3.847226
-22.314371 -2.544986 -0.702622
-12.051627 -0.679938 -4.550775
-6.751703 -0.146107 -0.404322
-8.843307 -0.487769 -0.812451
-19.872120 -4.490757 -2.103646
-24.999077 -3.005944 -0.818999
-17.282345 -3.123380 -4.717587
-15.216189 -3.486846 -1.735606
-7.944871 -0.437328 -0.881279
-21.077951 -3.669649 -1.353397
-19.189167 -3.574570 -1.389737
-3.363402 -1.315043 -1.037882
-3.455491 -0.946778 -1.822943
-3.184280 -1.299861 -1.077050
-5.407663 1.475316 -3.947034
-2.142491 -1.007956 -0.595191
-5.119370 -0.298066 -3.936197
-17.728497 1.107457 -5.368452
-9.062945 -1.842581 -0.307214
-22.647902 0.700873 15.344079
-4.227772 -0.156063 -3.424587
-3.448395 -0.205570 0.228576
-3.757930 1.278280 -3.312984
-7.989269 -0.232748 0.517274
-12.033908 -1.168453 -3.785381
-7.186959 -0.103113 -3.557773
-8.179141 -0.346977 -2.242514
-4.361252 -0.005188 -3.469951
-13.265887 -1.387111 -4.090055
-9.751057 -0.489540 -3.887459
-11.705778 -0.315909 -3.011541
-18.694445 -1.282203 1.702345
-8.274144 0.015205 -1.625515
-15.654941 -0.533847 -2.332072
-0.605303 1.626071 -2.565492
-5.897956 -1.534476 -0.718074
-7.499820 -1.586167 -0.311277
-5.201828 -0.765663 -0.691957
-4.259509 -1.473663 -0.643202
-3.759434 -1.266194 -0.254157
-2.291204 -1.068450 -0.550568
-4.667316 -1.344025 -0.333117
-3.700125 -1.176698 -0.330674
-4.234573 -0.035041 -3.760606
-6.988724 -0.862519 -3.779123
-2.971334 -0.819577 -1.254690
-9.107221 0.249570 -3.585187
-14.713796 -3.186275 -2.096391
-18.935907 -1.868642 -4.467711
-20.769318 -3.231113 -4.900390
-7.191404 -0.109156 -3.770231
-20.081739 -3.579669 -1.481967
-8.961364 -1.338974 -1.337620
-9.293586 -0.068614 -1.733030
-18.661301 -3.283037 -1.374417
-7.132136 -0.129898 0.368248
-13.913796 -1.380199 -1.896995
-15.703218 -2.614033 -2.627828
-23.125471 -2.518884 -5.201789
-17.735426 -2.624959 -4.264032
-3.415154 -0.170546 0.205627
-30.077431 -2.809307 3.987304
-3.792826 -0.383880 0.644039
-9.430025 0.797830 -2.959721
-4.171215 -1.436261 -0.171113
-7.065911 -0.067451 -3.501470
-3.653678 -0.457085 0.610374
-4.352793 -1.517400 -0.625171
-6.042914 -1.000895 -0.535414
-4.259804 -0.715842 0.910417
-5.340982 -1.498261 -0.666335
-3.653965 -1.949219 -0.342043
-15.958636 1.507582 -5.644042
-10.247416 -0.315671 0.566235
-9.642472 -2.276385 -0.170199
-3.424356 1.237383 -2.931515
-3.465877 -0.330761 0.271411
-3.036791 -0.867825 -1.264203
-7.283864 -0.199177 -3.105819
-3.765851 -1.116101 -0.849030
-3.611487 -1.558250 -0.626512
-4.148656 -0.135890 -3.357463
-4.042276 -1.230956 -0.477726
-5.336924 -0.476545 -2.993650
-3.148129 -0.107054 0.131691
-4.886100 -1.703173 -0.729266
-7.271307 -1.828332 2.184213
-4.782497 -1.853626 -0.640716
-3.712095 -1.264953 -0.315456
-3.827305 0.212623 -0.867402
-10.268262 0.984361 -3.225811
-4.548663 2.342044 -3.498308
-4.254332 -1.032115 -0.291714
-10.387654 -0.038689 -1.804080
-6.378552 -1.609890 -0.796394
-16.471195 -1.855604 -4.962419
-7.254130 -1.570090 -0.325590
-1.362855 -0.283033 -2.762886
-2.172410 -0.810584 -1.131596
-205.515900 -58.243713 13.557222
-2.818711 2.492492 -2.796154
-20.706568 -2.033057 -5.787984
-11.418159 0.879721 -3.430251
-25.710623 -2.721782 -7.004451
-5.994527 -1.380241 -1.143849
-7.130229 -1.697782 -0.540418
-3.764911 -1.495854 -0.589234
-18.041220 -1.864247 -6.583357
-1.603757 -0.270941 0.057099
-2.406322 0.070959 -0.243921
-3.497188 -1.164592 -1.196323
-5.651257 -0.796122 -2.834017
-1.600356 -0.261807 0.054258
-3.370328 -1.131949 -1.187540
-3.776970 -1.048430 -0.832904
-11.334258 -2.658557 -0.315183
-4.116328 -1.745861 -0.838749
-4.570272 -1.350923 -1.017148
-6.169456 -0.414711 -3.637771
-6.926193 -2.137742 -0.583414
-11.522947 -1.554654 -1.960576
-4.403386 -1.212129 -0.677577
-17.834835 -3.767445 -1.608965
-10.369177 0.501870 -3.156539
-5.695110 0.081127 -0.335637
-13.051965 0.332808 -3.426723
-20.480824 -3.791822 -3.291030
-4.145595 -1.554591 -1.171915
-23.170399 -0.174208 15.066597
-18.230431 -1.853796 -4.235873
-9.485484 0.663189 -2.914441
-6.893993 -0.107799 -0.596126
-17.217054 -1.783701 -0.572414
-19.663157 -2.099506 -4.347128
-10.089068 0.416777 -3.116766
-24.590832 -1.592468 -4.347972
-87.679581 -35.092476 13.696772
-36.831261 -8.494646 -3.336433
-1.828096 0.432478 0.420942
-3.499761 -1.090943 -0.388051
-19.511549 -4.170496 -6.952101
-7.420654 0.061183 -1.647689
-5.244698 -1.240696 -0.853242
-3.548917 -1.412482 -0.530977
-4.235944 -1.109953 -1.172089
-3.320892 -1.022177 -1.229215
-4.116414 -0.815057 -1.024415
-4.453051 -1.235820 -0.404831
-10.092029 0.285162 3.506921
-11.326117 -1.545515 -4.857433
-22.987776 -2.502443 -5.136253
-19.174679 -3.134687 -2.316116
-6.866140 -0.030710 -0.146230
-10.993652 -1.846924 -1.442452
-3.814846 -1.239762 -0.570227
-3.254981 -1.363438 -0.536912
-4.386348 0.046583 -3.268309
-3.151523 -1.135273 -0.702280
-4.441453 -1.952285 -0.456961
-3.736156 0.053017 -3.260180
0.905843 1.695959 -2.271264
-6.005579 -1.255967 -0.497110
-2.373250 -0.961283 -1.084704
-1.896760 0.367568 0.488357
-2.365009 -0.793501 -1.441674
-5.389645 -1.446797 -0.679613
-4.981415 -1.325260 -1.092166
-2.774659 -0.097327 0.158066
-3.593577 1.247097 -2.909296
-4.490828 -0.183690 -3.558185
-3.127268 -0.149383 0.027453
-4.014899 0.319792 -0.163237
-3.053043 -0.086644 0.060320
-6.752414 -1.175226 -0.449103
-3.120645 -0.100036 0.096316
-4.710312 -0.011529 -3.549426
-4.228506 -1.170892 -3.204272
-5.198236 -1.306091 -0.789309
-4.949646 -1.440885 -1.221088
-3.295255 1.601691 -3.198640
-0.126837 0.688863 -0.919418
-1.394233 0.411564 0.128901
-1.643088 -0.783331 -0.109462
-2.891026 1.788601 -2.821320
-3.700113 0.959141 -3.869855
-6.635369 -2.275247 -0.741271
-11.149068 -3.976997 -1.085438
-3.846253 -1.366038 -1.016131
-4.735560 -0.968269 -3.796392
-5.932935 -1.854900 -3.995347
-5.507706 -0.118382 -4.410781
-2.796272 -0.996636 -1.678725
-1.451056 -0.293876 -2.909844
-6.420854 -2.065365 -4.222362
-5.728561 -1.878815 -0.788800
-2.674052 -0.696109 -0.618769
-1.545355 -0.935604 -0.414367
-2.279685 1.287024 -2.803699
-3.217844 -0.105691 -3.997619
-3.695421 -1.536762 -0.711897
-1.300401 -1.469596 -0.732395
-3.531804 -1.211933 -1.016968
-1.666929 -1.050445 -0.372230
-2.446002 0.057667 -0.231275
-4.817564 -0.046348 -4.001929
-6.125140 -0.577263 -4.085760
-5.856609 0.912142 -2.523971
-2.345328 0.050582 -0.282371
-2.216295 0.310667 -3.724690
-3.961138 0.517011 0.195976
-3.210364 -1.178324 -0.700064
-6.939921 -1.663157 -0.647211
-2.325083 0.363926 -3.674680
-2.772811 1.721698 -2.780292
-7.271216 -0.755860 -4.688718
-5.417955 -0.047398 -3.901887
-5.451157 0.500784 1.724278
-3.974765 -1.245720 -0.607197
-16.595139 -0.590141 -2.383651
-3.545407 0.302006 -0.391329
-22.733673 -4.565925 -2.715040
-2.306733 0.005232 -0.090625
-26.065598 -1.333280 -3.247117
-18.522009 -3.477725 -1.987389
-134.253098 -18.363390 -2.076609
-6.627858 -0.138064 -0.597234
-17.068432 -2.016158 -5.149152
-6.342773 -1.568273 -1.001807
-4.199934 -1.372054 -0.826314
-2.635742 1.399034 -2.779896
-5.248968 -1.254232 -0.669861
-4.487803 -1.550668 -0.685612
-14.478127 -1.277190 -0.807971
-34.799419 -4.084281 -1.736517
-2.257879 -0.694565 -1.560419
-5.942331 -0.122837 -4.162909
-12.938830 -1.896995 -5.294599
-2.189784 -0.654220 -1.545017
-2.601143 0.034390 -0.177639
-3.823546 -1.319879 -1.245350
-2.490472 -1.134551 -0.635882
-2.494193 -1.017657 -0.663704
-1.787517 0.466702 0.359688
-7.191135 -0.295365 -4.868077
-3.296299 -0.345492 -2.896265
-4.013956 -1.276147 -0.926551
-6.160625 -1.677765 -1.536671
-5.821413 1.434681 -4.268743
-30.922667 -3.150414 -4.666183
-18.967354 -1.585684 -5.327752
-19.407352 -2.467896 -6.992316
-6.238527 -0.165683 -4.320657
-10.425246 -0.417130 -4.892393
-3.722844 -1.338311 -1.097606
-15.553925 -2.575985 -5.173520
-6.720674 -0.736849 -3.546448
-5.435952 -0.251816 -3.384779
-7.742011 -0.983519 -3.119538
-5.699411 -0.862934 -0.587304
-2.652361 -0.114056 -0.044740
-14.991473 0.739319 -4.621501
-3.983739 -0.488739 -0.821815
-4.074946 -1.177827 -0.825097
-12.112613 -0.762506 -2.524421
-13.901237 0.268825 -3.999635
-9.566469 -1.261518 -1.769477
-6.525860 -0.185276 -0.758150
-5.973661 0.067699 -0.579300
-6.262604 0.051011 -0.440947
-6.028508 0.115433 -0.594858
-6.717539 -2.734510 -1.066597
-5.329466 0.141592 -0.623609
-2.941809 0.621443 -3.440364
0.066620 0.733415 -0.979741
0.237501 0.720955 -0.984526
-3.080888 1.836571 -2.933688
0.024530 0.700418 -0.879441
0.124756 0.710984 -0.933797
-4.117040 -2.072218 -0.552371
0.229100 0.733910 -1.008117
-1.669330 0.494045 0.205507
-1.988858 -0.536827 -1.609361
0.103408 0.733341 -0.940779
0.145353 0.715806 -0.960108
-1.489406 -0.016586 0.009155
0.237533 0.723159 -1.005314
-1.508633 -0.153381 -0.037063
-3.024490 -1.985716 -0.449037
-2.233095 0.032048 -0.273644
-2.826728 -0.225441 -3.418450
-1.757497 -0.625473 -0.843024
-2.189254 -0.796965 -1.250452
0.045846 0.701204 -0.869221
-5.494391 -1.843050 -1.544611
-4.660862 -2.402249 -0.462549
-1.406402 -0.154549 -0.072012
0.062072 0.708122 -0.964936
0.145527 1.707943 -2.212393
-3.034986 -0.282299 -3.569619
-3.276792 -1.936274 -0.494653
-0.774914 1.924268 -2.237586
-0.156278 1.597840 -1.489510
-6.173633 2.407755 -3.849391
-0.191678 1.850910 -2.149009
0.123388 0.714691 -0.949202
-1.604148 -0.529362 -0.860339
-0.418222 0.668989 -0.790229
0.012147 0.729538 -0.864870
-0.807097 0.706361 -0.512350
-0.967432 0.613967 -0.416389
-0.780722 1.273851 -2.691077
-5.976149 -1.949115 -0.707084
-4.402454 -1.440499 -0.852038
-2.065693 -0.791475 -0.783179
-3.526615 -1.703431 -0.612479
0.468086 1.769072 -2.012799
0.466717 1.815102 -2.066551
0.151553 1.750462 -2.204981
-8.752555 -2.438054 -1.834024
-2.065920 0.459349 0.440405
0.398695 1.640712 -1.966235
0.198612 1.811644 -2.119638
-0.226107 0.249874 -2.962165
0.047965 0.706327 -0.959859
0.050651 0.277236 -2.714200
-0.803738 1.947004 -2.269187
0.194060 1.834023 -2.139364
-2.192408 1.129005 -3.185298
-1.610155 -0.162148 -1.475166
-1.790519 -0.757199 -0.816102
-2.288478 -1.149285 -0.690849
-2.461551 -1.651694 -0.529836
-1.422515 0.498617 0.134523
-0.163670 1.805111 -2.101523
-0.813486 0.980608 -2.891876
-1.535421 1.324506 -3.121713
-2.852817 -0.095124 -3.808189
-2.941357 1.375971 -3.100507
-1.573992 0.443241 -2.209089
-1.039908 0.684797 -0.633586
-0.275746 0.681353 -0.841954
-2.627719 -0.006574 -0.018796
-2.083235 0.039985 -0.225974
-2.493103 -1.239437 -0.638118
-1.556815 -0.165300 -0.008637
0.287842 1.941122 -2.150214
0.397709 1.638967 -1.977277
0.028794 0.284442 -2.782940
0.011980 0.261863 -2.849390
-0.718384 0.219480 -3.004365
-2.830722 -0.696631 -1.704340
-1.278194 1.206568 -2.718893
-0.950478 0.074329 -3.471609
-0.505241 0.661437 -0.758639
-1.279010 -0.603132 -0.794018
0.142868 1.715469 -2.226720
-0.091508 1.802462 -2.168817
0.282296 1.990893 -2.191950
-2.489126 0.629806 -3.272381
-2.288967 0.034439 -3.352661
-1.392515 0.492817 -2.102212
-0.341748 0.674083 -0.818288
-2.219666 0.059121 -0.312627
-1.393555 -0.077606 -0.087247
-2.623329 -0.864866 -1.689587
-1.857711 1.225927 -2.870350
-1.360576 1.171227 -2.663705
-2.035639 -0.282834 -1.614391
-1.989477 -0.586942 -1.114521
-2.145306 0.044519 -3.499414
-1.255336 -0.263010 -0.935138
-3.281953 -1.295609 -1.199042
-1.296505 0.515892 0.048637
-1.933756 -0.925432 -0.738024
-2.118370 0.012405 -0.227556
-0.555929 0.244274 -2.861648
-2.718900 -0.764529 -1.678374
-5.350456 -2.303048 -1.008596
-1.865295 -0.225030 -0.713670
-2.444182 -0.960823 -0.807121
-9.073628 -3.129026 0.411751
-3.429896 2.114251 -3.245469
-1.401217 -0.090861 -0.091310
-3.372186 -2.040097 -0.476787
-1.924476 -0.921405 -0.747549
-3.881875 -0.087446 -3.400719
0.409946 1.494206 -2.225915
-4.016433 -1.285861 -1.302949
-4.516051 -1.427536 -1.471701
-4.294545 -1.330954 -0.539548
-1.473393 -0.102388 -0.049106
-1.030364 1.164353 -2.984851
-16.227463 -1.848537 -4.808123
-4.180912 -1.307285 -1.035503
-2.100717 0.102028 -0.133920
-42.887142 15.360115 -17.491671
-7.551237 -0.800585 -3.805344
-2.631450 0.246098 -4.011746
-3.031968 0.473259 -3.580005
-3.239944 -0.006352 -4.039634
-0.904908 0.716370 -0.592453
-0.614603 0.317569 -2.649207
-0.537579 0.220843 -2.992022
-0.548348 0.207384 -3.016854
-0.592430 0.087021 -3.208763
-1.978220 1.070578 -3.174812
-1.954883 1.260478 -2.934742
-1.673788 -0.379081 -3.133895
-1.973760 -0.815405 -0.807773
-1.263438 1.262585 -2.845315
-2.186755 0.892557 -2.965419
-3.848033 -1.517704 -1.017789
-2.054034 0.120794 -0.148035
-1.022872 0.066316 -3.501801
-0.632082 0.058190 -3.320819
-1.359389 0.563323 -0.774492
-3.467031 1.244845 -3.031049
-27.485126 4.650515 -8.031799
-2.488215 -0.653596 -1.611004
-2.900132 -1.364408 -0.641398
-2.263384 -1.019819 -0.784119
-2.443715 0.096040 -0.225424
-1.381208 -1.044919 -0.902070
-1.329651 -1.046428 -0.761087
-5.639359 0.960140 -2.526847
-3.423844 -1.142022 -1.784092
-3.082764 -1.167239 -1.514475
-0.594783 0.693989 -0.827209
-3.744515 -1.074526 -0.382192
-1.505331 -0.022544 0.034888
-3.035843 0.632180 0.072950
-1.606888 0.650109 -0.520700
-6.688117 -1.956489 -0.070137
-3.296204 -0.158035 -0.000491
-2.975558 -1.516738 -0.656198
-2.350699 0.033249 -0.056262
-1.653058 0.221056 -0.334349
-2.150600 -0.941201 -0.804354
-4.563256 0.597226 0.697978
-4.602759 1.361652 -3.495934
-8.229306 1.049236 -3.122787
-1.622872 0.500662 0.199920
-4.363712 -1.312663 -0.714289
-5.051452 2.468649 -3.133268
-4.468641 -1.496391 -0.744597
-2.284167 1.746183 -2.698519
-2.066457 1.111218 -3.081961
-3.514893 -1.066210 -0.851945
-2.703430 -0.057346 -0.117718
-2.774336 -0.558646 -1.819303
-2.325425 -1.127191 -0.626355
-3.378565 -0.849045 -2.176799
-7.341983 1.594940 -2.831335
-4.187010 -1.092393 -1.128793
-70.400063 -19.792202 2.309394
-2.364442 0.032848 -0.167964
-13.657533 -0.214347 -3.682287
-4.890249 0.150327 -0.224113
-5.408907 2.313611 -3.067523
-12.568608 -0.028134 1.595435
-2.829645 -0.830115 -0.818304
-10.818067 0.241128 -4.123725
-3.657799 -1.046474 -7.267368
-18.844065 -1.916000 -4.233375
-25.284157 -21.276222 0.824137
-6.467371 -0.113310 -0.217709
-16.095718 -1.865053 -4.948299
-12.032264 -1.073737 -0.905703
-3.672142 1.624003 -3.937336
-7.095566 -0.169248 -0.434807
-3.575301 -2.140036 -0.450308
-11.948992 0.104318 -3.289660
-5.692073 6.662991 -16.095171
-4.450039 0.193475 1.326747
-6.059040 0.155762 -0.397222
-4.086218 3.598011 -3.964911
-8.441691 -8.895805 1.365770
-5.208313 0.165436 -0.635040
-5.832066 0.035174 -0.429844
-7.651433 -8.054460 1.159552
-8.592626 -6.296081 0.628574
-4.687029 0.531869 2.208787
-6.721147 -0.186064 -0.888536
-7.408116 17.464247 -16.619503
-5.951329 -5.175665 0.514370
-6.259375 0.447603 3.332286
-22.368883 -4.112147 -3.425628
-1.287758 2.375842 -2.554483
-2.467582 1.343636 -3.327790
-3.759829 1.686282 -3.472383
-5.760419 1.575880 -4.024678
-1.471457 -0.662171 -0.822818
-2.044833 -1.056079 -0.726678
0.091149 1.952122 -2.237031
0.140678 1.912639 -2.199211
-0.737993 1.084899 -2.901768
-3.590035 -0.500955 -5.609172
-0.879836 0.254842 -3.070164
-5.919427 1.144274 -2.855546
-2.299149 -0.049437 -3.934472
-1.728669 0.084072 -3.601794
-3.104844 -0.051490 -4.100383
-2.343239 0.159953 -3.641948
-2.826135 1.887337 -2.817018
-5.189332 -1.915658 -1.245637
-1.892898 1.123868 -3.165349
-1.413779 1.171698 -3.036091
-1.440147 1.126688 -3.060543
-2.065179 0.111115 -0.178839
-2.549150 -0.084345 -0.097040
-1.908937 -0.083344 -2.654161
-2.032668 0.536985 -3.393051
-2.954312 0.320491 -4.128532
-1.195093 -1.346011 -0.821725
-0.771195 0.731190 -3.039029
0.834096 1.201564 -6.917236
-1.183017 1.737358 -6.220698
-4.346495 -0.062113 -3.646159
-4.041110 -1.796502 -1.187441
-2.102596 -0.001605 -0.190538
0.815636 1.060052 -5.029481
-3.527487 -1.813843 -0.688890
-3.329640 -0.955222 -2.342881
-3.659389 -0.743123 -2.202924
-0.117644 1.972350 -2.247945
-1.331901 0.176188 -3.287167
-1.332962 0.105812 -3.607887
-1.010650 0.984747 -1.680192
0.879930 1.508055 -1.717447
-1.634546 0.543198 0.215049
-2.250537 -0.506377 -1.634031
-2.156389 -0.608283 -1.674303
-2.548016 -0.777932 -1.795343
0.504700 0.768967 -1.019188
-3.525465 -1.613302 -0.642975
-0.883923 1.016766 -2.974467
0.094916 1.849838 -2.145180
0.477677 0.742303 -0.987903
-0.162198 0.684430 -0.839849
-2.209103 -1.064843 -0.719627
-2.704243 1.489776 -2.913877
-2.825430 0.045549 -0.113398
-1.442255 -0.493583 -3.112672
-7.376991 -4.462964 0.022957
-6.004664 -0.806028 0.633153
0.498608 1.826842 -2.160610
0.495232 1.798277 -2.141836
-2.455824 1.138997 -3.237043
-6.045631 -2.303648 -1.275478
-0.617937 1.197325 -2.744251
-0.758442 1.145118 -2.897902
-4.020608 -1.276156 -0.979329
-2.584674 -0.662305 -1.039175
0.111965 0.748666 -0.857899
-4.132673 0.564541 0.695244
-3.675375 -0.233917 -4.434376
-2.150164 0.072842 -3.546973
-2.241458 -0.634315 -1.115271
-1.463551 -0.202667 -0.085276
-2.464759 -0.059519 -0.121159
1.084960 5.169163 -48.042530
-1.128860 0.895678 -2.730217
-2.110158 0.103239 -0.140006
-1.349176 -0.767647 -0.522081
0.079096 0.308693 -2.755602
-0.952438 0.257601 -2.948411
-2.203680 0.517870 -3.531640
-3.597919 -0.900189 -1.742146
-2.968833 -0.793957 -2.254965
-2.707576 -0.862489 -1.767817
0.879977 1.496658 -1.708612
-1.036659 0.100049 -3.560368
-0.398655 1.884207 -2.158544
-2.330723 -1.093963 -0.787436
0.201944 1.923829 -2.192047
0.365269 1.844553 -2.178798
-4.387799 1.446611 -3.818993
0.427472 0.766740 -1.002329
-2.802882 -1.519455 -0.628816
-2.240767 -1.084778 -0.719194
0.088593 1.956583 -2.241541
0.012043 1.901633 -2.222826
-3.163426 0.166990 -4.423923
-1.672064 0.105472 -3.426409
0.361058 0.737793 -0.932126
-5.884434 -2.679382 -0.449215
-1.567448 0.549858 0.177434
-3.316916 1.909409 -3.090527
-4.232320 -0.260366 -4.713611
-2.300630 1.151112 -3.128126
-0.449433 0.725926 -0.624098
-2.176567 1.923853 -2.821634
-1.277134 0.399560 0.130033
-2.153028 -1.029440 -0.728597
-1.477851 -0.622437 -0.819942
-1.926884 0.324675 0.388356
-0.811511 0.995208 -2.927614
-0.704737 1.056731 -2.879960
-1.868806 1.681386 -2.486348
-2.590085 1.159553 -3.323947
-2.001074 0.946665 -2.957031
-6.028244 -1.923295 -0.803718
-5.343394 -1.660442 -0.872734
-3.872194 -1.389538 -0.751272
-3.305197 -1.185308 -0.806785
-1.395859 -0.173445 -0.117513
-3.915495 0.677649 0.416566
-0.043853 0.742018 -0.791687
0.130976 0.749575 -0.864711
-3.747626 -1.086913 -0.665007
-3.786383 -1.227733 -0.829643
-0.699589 1.181264 -2.745344
-0.802675 1.248780 -2.935316
-0.841716 1.181688 -2.866831
-2.402005 0.072107 -3.488729
-1.683987 0.197748 -3.081236
-4.093675 -0.174961 -4.983043
0.665941 1.710691 -2.206095
0.484272 1.878359 -2.020435
-4.211146 -1.750239 -1.249935
-4.931057 -0.647306 0.466610
-0.917703 0.603749 -0.284746
-1.198437 -1.103823 -1.103097
-11.231036 0.376918 6.115198
-1.384996 3.779979 -5.396115
-0.223557 1.930915 -2.203855
-3.214028 0.162783 -4.466708
-3.275922 -0.445691 -3.102206
-3.056387 -0.838095 -2.263959
0.063835 1.999795 -2.282264
-1.217084 0.166809 -3.400384
0.505892 1.834691 -2.370588
-0.559439 0.245098 -3.065679
-2.185935 -0.416305 -1.619823
-2.616422 -0.570864 -1.700694
-2.314358 -1.085031 -0.792101
-1.141942 -0.522221 -0.847402
-7.151514 -2.049402 -1.472410
-3.710168 -1.241858 -1.369105
-4.020331 -1.558205 -0.651888
-0.391285 0.733061 -0.525284
-0.643421 0.718870 -0.528517
-1.427913 0.564644 0.099437
-1.665272 -0.289185 -0.021369
-2.841661 0.808508 -3.439948
-2.814856 0.137113 -3.739454
-0.436552 0.750822 -0.731948
0.434506 1.862467 -2.109787
0.478454 1.878412 -2.121691
0.422551 1.863643 -2.181761
0.494987 1.839960 -2.179676
-5.298712 1.551965 -4.300616
-3.156289 -0.016770 -3.944370
-2.423650 0.007459 -3.752850
-2.281976 1.345278 -3.163136
0.749638 0.971121 -2.991930
-0.718939 0.542668 -5.646653
-1.642480 -2.104493 0.288488
0.597613 0.535285 -2.133932
-2.238580 0.652605 -3.166457
-3.414937 -1.061992 -0.844714
-1.736720 -0.321586 0.043954
-1.210755 -0.138691 -0.180748
-1.735700 -0.322501 0.008595
-1.136203 1.217584 -2.898994
-2.329905 1.402206 -2.943656
-1.080734 0.691894 -0.485119
0.926928 3.123712 -3.799394
0.094948 8.003466 -9.412328
0.062835 0.310430 -2.798407
-0.142015 1.767274 -2.147187
-3.141378 0.333483 -4.316267
0.111353 0.761412 -0.789538
-2.207981 0.677432 -0.043622
-1.389487 -0.826734 -0.529053
0.750764 0.980676 -3.024554
0.705800 1.656386 -1.839715
-3.375734 0.434891 -3.850795
-3.719575 -0.361995 -3.190237
0.885188 0.951943 -2.685772
-0.334603 1.985471 -2.326791
-1.641866 -0.079764 -1.757596
-3.340314 -0.912406 -2.396558
-0.416767 0.732133 -0.754254
-1.428458 -0.548641 -0.859118
-3.012462 -1.303234 -0.788184
0.505361 1.839786 -2.377130
0.344388 1.833412 -2.179217
0.061550 2.003194 -2.287369
0.766610 0.960944 -3.155756
0.760186 0.919550 -3.124596
-2.538581 1.177168 -3.279728
-2.672701 0.081450 -3.601461
-2.306707 0.032975 -3.655095
-5.020065 -1.833174 -1.426455
-3.348393 -1.217445 -0.801927
-1.847169 -0.675292 -0.826633
0.393225 1.926306 -2.171092
0.471558 1.893068 -2.137120
0.396339 1.874081 -2.227368
-5.125064 -1.813830 -0.726275
-4.628713 -1.908077 -1.153885
0.824491 1.711786 -2.195073
0.248361 0.497817 -2.826821
-1.245221 -0.864220 -1.040032
0.131738 1.672486 -2.345139
-2.121863 -0.000927 -0.179812
0.250701 0.307578 -3.012673
-1.300864 -0.942298 -1.039686
-1.345608 -0.154710 -0.138353
-1.356949 -0.205979 -0.109957
-0.867138 1.156303 -2.697323
-2.723782 0.070398 -3.665745
-2.767748 0.122267 -3.875042
-2.908298 0.051830 -3.975239
0.761009 0.983430 -2.987267
0.575330 0.329120 -2.754941
-1.569924 0.361133 -3.147574
1.036613 3.447806 -4.173828
0.491725 1.893771 -2.299731
0.507851 1.871832 -2.339762
0.508044 1.840947 -2.347579
-0.958228 0.124449 -3.472377
-0.077998 0.364996 -2.592450
-3.283696 0.641446 0.250185
-0.460126 -0.000939 -0.107907
1.235380 4.440401 -5.364122
-0.226037 1.912759 -2.199888
-0.033202 1.852235 -2.138062
-5.777122 -0.132674 -4.513976
-1.640502 0.963998 -1.764506
-13.104334 -4.146104 -4.799765
-3.532467 -1.021589 -2.440842
-2.898276 -0.823913 -1.233839
-3.015216 -0.980069 -1.254761
-2.395068 1.617319 -2.706273
-4.569723 1.886074 -3.896684
0.493139 1.806815 -2.058187
0.417653 1.879115 -2.199331
-4.998948 -1.497897 -0.930153
-0.392366 0.733502 -0.761920
-5.872390 1.456401 -4.228735
-0.091359 10.057417 -11.762044
0.781539 1.736454 -2.253510
-2.189780 -2.444527 0.446750
1.929997 9.817507 -8.114204
0.495654 1.891437 -2.241930
-1.068294 0.489562 -0.039144
-1.863500 -0.305360 0.086812
-2.566625 0.107980 -3.552646
-2.417580 0.189106 -3.601957
-3.585335 1.904714 -3.326839
-3.798373 1.804595 -3.511926
-1.292821 -0.974713 -1.001255
1.966156 10.087882 -8.330471
1.252596 4.566070 -5.517531
0.488088 1.850801 -2.206673
0.048142 1.754414 -2.062528
-2.748185 1.694972 -2.751162
-3.051304 -1.136783 -1.552941
-1.920617 0.670525 -2.897120
-2.132916 -0.575609 -1.324062
-1.490372 1.127361 -2.908014
-3.122929 0.648696 0.588817
-1.708449 0.686032 -0.254179
-2.519942 -0.408402 -1.910140
-2.320923 -0.536505 -2.065568
-3.183067 -0.838579 -2.409808
-4.843692 -0.583864 -1.312678
-1.744308 1.344226 -2.483091
-4.836618 -1.356191 -0.517835
-1.406798 0.073083 -0.008670
1673.662109 11010.043945 -9135.281250
0.284952 0.369565 -2.771629
-0.385950 -0.688637 -0.729395
0.760801 0.985285 -3.021903
0.015519 0.375797 -1.043180
-3.856121 -0.223915 -4.476979
-4.407913 -1.118295 -2.120992
-7.854292 -3.385470 -0.324254
0.752959 17.500711 -20.712109
-1.401420 -0.103970 -1.216529
-2.605977 -0.919205 -1.533111
-4.147933 -1.349833 -1.651718
-0.693675 0.723896 -0.612809
-1.708469 0.686031 -0.254172
-2.957388 0.155446 -2.601542
-3.091269 -0.613361 -2.048228
-1.599706 -0.325167 0.000732
-3.858030 -0.035475 -4.810595
-2.478649 0.651796 -3.267288
-1.299252 0.090106 -0.075470
-1.479343 -1.350469 -1.102990
-3.412187 1.354095 -3.325827
-1.810808 0.058261 -3.767142
-2.369212 1.191850 -1.868495
-3.303089 -1.017325 -1.243370
-2.219381 0.965631 -3.231476
-1.880012 1.097465 -3.194723
-1.429955 1.132789 -2.984945
-1.770980 0.155787 -0.324962
-2.991822 -0.004671 -3.810483
-3.610277 0.227561 -3.120043
-7.558818 2.263035 -3.987179
-3.156778 -0.062805 -3.962640
-3.733807 -1.539103 -0.669074
-2.510343 -0.896048 -1.447723
-2.901301 0.497601 -3.513117
-0.839879 1.300569 -2.787478
-2.590137 2.006621 -3.063020
-0.702238 1.828086 -2.161513
-3.729620 -1.107372 -0.524978
-1.357460 1.244427 -3.086044
-3.528152 -1.173438 -1.310221
-1.518884 0.689464 -0.232664
-12.221415 1.233529 -3.698751
-1.321688 1.237769 -1.688289
-2.583282 -0.935036 -1.463605
-9.043332 -0.047835 1.987743
-1.967374 0.035771 -0.220953
-0.830054 1.982367 -2.322078
-4.151888 -0.630370 -6.283115
-7.614407 -5.064023 0.254437
-2.781538 0.036515 -3.668393
-1.792908 0.517257 -0.456361
-2.407357 -0.838057 -1.441155
-4.926816 -1.377211 -1.155950
-1.932694 1.423305 -1.879094
-1.268389 0.062809 -0.088881
-9.802359 2.873085 -3.967945
-8.733610 2.333269 -3.549438
-23.611986 2.874335 -7.978150
-2.814580 0.437913 0.623356
-2.890028 -0.226596 -3.486459
-0.863663 2.014249 -2.356177
-3.227372 1.592091 -3.208035
-2.344032 -0.800914 -1.445152
-2.217651 -0.932096 -0.773017
-2.683228 -0.930206 -1.280589
-1.097996 0.711939 -0.351719
-1.117026 0.607397 -0.340696
-6.639863 2.518632 -4.031003
-5.867885 0.229431 0.927524
-3.213598 0.645945 0.671683
-3.537601 -0.238265 -4.320323
-0.880553 2.013105 -2.366455
-2.265505 -0.052980 -3.803897
-1.259048 0.067362 -0.093808
-2.710567 -2.749034 -0.945294
-11.048238 -3.114501 -0.515491
-0.153281 0.685344 -0.880780
-7.099485 2.623407 -4.229795
-1.435107 0.546576 0.096311
-1.292064 -0.030917 -0.155481
-0.282459 0.666158 -0.912412
-2.131803 1.035861 -3.205158
-9.501013 -0.071366 2.093945
-6.975389 2.053036 -3.694252
-2.443937 -0.096124 -3.960020
-2.607718 1.871602 -2.902995
-38.544697 3.991016 -9.337003
-2.314686 0.561854 -3.383838
-2.271455 0.146939 -0.283474
-5.468784 2.057253 -2.895055
-13.884192 2.998585 -4.936911
-24.629448 4.774837 -7.862959
-22.286037 3.824741 -6.373406
-2.254162 -1.075082 -0.735953
-1.255880 0.049200 -0.081577
-1.273415 -0.024958 -0.167458
-1.808108 -0.782657 -0.820402
-6.078196 1.548151 -4.274771
-12.833734 -1.407547 -6.360278
-3.138625 -0.851262 -0.794116
-2.006549 1.057467 -3.264701
-1.267246 0.530370 0.035146
-5.837924 -0.252877 -4.307508
-6.809347 1.602493 -2.891545
-3.064659 -0.732431 -1.738633
-4.225246 -1.326428 -1.886081
-6.132200 0.461023 0.680151
-2.171890 -0.485451 -0.691017
-1.338565 -0.051815 -0.130416
-2.793378 -1.001018 -1.120515
-1.453444 0.543426 0.107988
-5.276006 1.450280 -3.950742
-2.687362 1.350006 -2.029157
-1.547045 -0.331946 -1.134579
-2.950997 -1.025553 -0.862949
-4.126264 -1.710062 -1.378986
-2.151323 -0.626224 -1.244070
-3.523119 -1.142859 -0.519796
-2.958577 -1.089894 -1.124759
-8.048843 -2.467124 -0.019796
-3.158297 0.590814 -0.125101
-0.857342 0.688611 -0.746238
-1.062468 -0.321392 0.006381
-5.203695 -1.292500 -0.781443
-1.385666 0.536512 0.140062
-5.307467 -1.309730 -1.562288
-0.512635 0.659195 -0.684986
-3.047580 0.759383 -3.425272
-11.666270 3.568887 -4.855548
-2.526086 0.647034 0.255015
-1.778415 0.538679 -0.095436
-0.516161 0.654845 -0.593348
-1.447411 1.252279 -3.004337
-0.596988 0.651158 -0.621488
-3.466122 -0.935967 -0.418909
-3.102423 0.605288 0.742548
-2.584812 0.696708 0.202149
-28.336777 6.311859 -8.828550
-1.378246 0.536588 0.136464
-5.246404 -1.296197 -1.553111
-1.458020 0.557184 0.010185
-4.509880 1.238719 -3.611297
-4.352041 -1.155628 -1.240068
-5.563752 0.231343 1.275670
-2.156183 1.299819 -3.235563
-12.459788 3.757536 -5.110599
-1.429415 0.356749 0.120375
-1.436368 0.295559 0.095559
-1.962084 0.142488 -0.181850
-3.610738 -0.929033 -2.337564
-1.394195 0.212196 0.026887
-2.685812 0.630113 -0.097141
-2.811203 -0.095098 -0.055046
-1.381905 0.522787 0.112203
-7.825037 -0.079443 -3.986625
-1.345072 0.547569 0.107720
-0.426712 1.611234 -4.408311
-1.298450 0.542825 0.070022
-1.446186 0.412454 0.147084
-2.055961 0.640647 -0.320384
-1.456221 -0.949239 -1.228099
-3.443359 1.862343 -2.402948
-5.189498 1.162446 -2.402480
-6.973953 0.952299 -2.861042
-3.712888 -1.391553 -0.786994
-2.045920 0.164659 -0.284730
-3.306067 1.905124 -3.058172
-2.529006 1.463221 -1.962249
-6.378763 1.867408 -2.786719
-9.089784 2.423908 -3.795133
-2.277938 0.053348 -0.184727
-2.798093 1.543996 -3.111731
-5.773561 1.493829 -3.050486
-2.908966 1.698250 -2.616472
-3.779174 0.594960 0.736208
-3.409478 -1.071499 -0.750297
-12.812925 1.359571 -4.322029
-8.591830 0.414283 1.805090
-4.209544 0.557811 0.346464
-11.699337 1.172688 -3.981490
-105.521545 5.909021 -27.226648
-4.597096 -1.420689 -0.996706
-15.410091 -2.678229 -2.014951
-1.502419 0.171154 0.073805
-13.737483 -1.606923 -19.318739
-8.155396 2.683326 -3.467972
-4.040995 1.895858 -2.519869
-2.035637 0.656889 0.304438
-2.681150 0.421304 0.561709
-15.939750 -0.764864 -4.042461
-37.973625 -2.649056 -8.274150
-2.430610 0.027304 -0.265034
-13.807699 -1.109305 -5.266737
-7.948079 2.880169 -3.868505
-2.474672 0.431560 -0.487873
-1.534940 -0.475598 -0.177440
-1.537076 -0.467988 -0.154547
-1.541669 -0.483196 -0.173351
-6.135466 -1.566235 -1.015689
-17.490759 0.195706 7.524103
-1.580098 0.177943 0.114362
-7.288605 -8.024961 1.324573
-6.996923 1.203287 -2.948025
-3.324449 -0.083302 -0.168493
-3.852108 1.658117 -2.293074
-3.946689 -1.196577 -0.605446
-1.815677 -0.314406 0.519947
-1.695845 -0.316018 0.527618
-1.815981 -0.396602 0.520902
-1.905071 -0.281661 0.540740
-1.707850 -0.260599 0.549224
-1.585540 -0.253577 0.557630
-2.754633 -0.594844 0.943703
-1.604165 -0.247661 0.519897
-1.678233 -0.252847 0.528850
-1.553845 -0.301778 0.531692
-1.538636 -0.338174 0.448749
-1.412392 -0.292067 0.532032
-2.045018 -0.353179 0.594336
-1.580041 1.521867 -2.995241
-1.703291 0.528906 -3.555106
-1.253475 1.272050 -2.842528
-1.409878 1.464376 -2.908286
-1.239097 1.362468 -2.825010
-1.354737 1.677575 -2.246628
-0.728450 0.925990 -2.692629
-0.573293 0.895109 -2.678108
-1.807483 1.142728 -2.903204
-1.484753 1.760830 -2.738627
-0.757502 0.707130 -3.004237
-0.624085 0.840172 -2.714386
-0.703380 0.719848 -2.941555
-0.875066 1.240921 -2.606329
-1.637256 1.154979 -2.824241
-1.541062 -0.293517 0.501045
-1.814185 -0.324290 0.533915
-1.749212 -0.322874 0.543899
-1.533283 -0.241571 0.529677
-1.847098 -0.271886 0.534105
-1.546939 -0.301687 0.529304
-1.728689 -0.258598 0.535701
-1.903603 -0.272654 0.549498
-1.743847 -0.260154 0.540974
