-4.061357 -2.868818 0.589080
-4.641617 -2.107690 0.148638
-3.954855 3.268943 -4.690223
-4.989336 -2.483247 0.308784
-5.143373 -3.839486 0.998949
-3.978898 -2.475365 -0.211724
-4.430931 -3.321475 0.786027
-5.065109 -2.562244 0.270606
-2.747351 -0.569672 0.796004
-2.506298 -0.576028 0.713600
-2.459613 -0.390756 0.838766
-2.261595 -0.375619 0.832294
-2.404805 -0.563132 0.748957
-2.274494 -0.436902 0.781937
-2.410520 -0.379877 0.827175
-2.657393 -0.411153 0.921308
-2.295387 -0.357857 0.795895
-2.466060 -0.390273 0.926607
-2.465057 -0.381534 0.840753
-2.482145 -0.434009 0.775551
-2.296149 -0.541101 0.726912
-1.972451 1.441434 -3.254681
-1.706850 1.292555 -3.360397
-2.180791 1.377613 -3.277534
-2.213118 1.444041 -3.246994
-0.534235 1.060670 -2.584790
-1.783671 1.267895 -3.348706
-1.781308 1.420128 -3.163979
-1.087226 1.215826 -3.344874
-1.021994 1.511796 -3.014522
-2.300805 1.464131 -3.287359
-1.607210 1.470029 -3.253370
-1.767015 1.319715 -3.390108
-0.906610 0.690645 -3.363177
-0.779410 0.792315 -3.353384
-2.107129 1.270549 -3.353423
-0.889432 1.513099 -2.924015
-1.214611 2.033684 -2.971666
-0.586681 1.355038 -3.100488
-2.176348 1.234558 -3.332651
-1.458933 2.117056 -2.998900
-1.116394 -0.167716 -4.049742
-2.208665 1.387940 -3.286522
-2.208904 1.352054 -3.331262
-2.120746 1.377997 -3.322242
-1.933888 1.396948 -3.353075
-2.209391 1.289054 -3.409856
-2.327089 1.257395 -3.411202
-2.368341 1.406184 -3.507895
-2.351312 1.348113 -3.584645
-2.557045 1.344187 -3.506799
-2.084172 1.357806 -3.232155
-2.053512 1.220303 -3.275108
-0.214910 -0.597653 0.810547
-1.125160 0.770458 1.126395
-0.926156 1.523230 -2.943481
-1.825424 1.309929 -3.426704
-2.115805 1.479200 -3.298382
-0.933525 1.169343 -3.267128
-0.692263 1.378823 -3.178010
-2.033274 1.258789 -3.240283
-0.638394 1.353616 -3.123630
-0.296615 -0.680221 0.796061
-2.843997 -0.653051 0.858135
-2.479540 -0.396646 0.826981
-3.186640 0.509015 0.962050
-2.051762 -0.567957 0.853452
-2.509456 -0.482233 0.782613
-2.455339 -0.387308 0.819061
-3.473526 0.527693 2.218212
-2.177757 -0.381222 0.876668
-2.632522 -0.432020 0.820332
-2.580771 -0.412433 0.808519
-2.216846 -0.367312 0.818874
-3.863637 0.358619 1.692352
-2.073113 -0.409979 0.941056
-1.654449 0.343324 1.394679
-1.524871 0.326259 1.295381
-1.995617 -0.442198 0.814454
-2.116904 -0.365612 0.817190
-2.734346 -0.551812 0.805174
-2.548382 -0.574166 0.788521
-2.697902 -0.540777 0.795500
-1.856657 -0.349417 0.876571
-2.384794 -0.465810 0.790303
-1.986929 -0.448958 0.811091
-2.220993 -0.557021 0.780579
-2.527889 -0.535621 0.740371
-2.149391 -0.425219 0.722806
-1.239350 0.674060 1.219421
-0.654362 0.208386 0.815989
-1.531650 0.230992 0.988102
-1.486691 0.305248 1.222113
-3.475569 -0.602093 1.456313
-3.318974 -0.587450 1.395069
-3.612346 -0.605345 1.331785
-3.689541 0.194675 1.777085
-4.274904 -2.168551 0.209254
-7.098068 -2.651090 -0.280856
-3.845186 4.117721 -4.660911
-7.220343 -2.552391 -0.540749
-5.262628 0.879423 5.753431
-5.995293 -1.896810 -0.631316
-5.199803 0.476357 4.152750
-6.367229 -0.690951 10.762443
-6.195720 -1.693009 -0.641388
-4.613533 -0.529625 -6.303556
-4.241712 -0.487893 -6.140303
-7.268031 -1.613117 -0.434310
-4.637468 -3.407222 0.826171
-4.530619 0.532713 3.752106
-4.393251 0.955056 5.956977
-1.456848 2.113837 -2.473256
-1.446473 2.109695 -2.477201
-1.767467 1.225398 -3.197614
-1.324080 1.366743 -3.069565
-0.499052 1.507044 -2.898113
-1.419370 1.308019 -3.104854
-1.761679 1.324298 -3.102182
-2.676462 1.377334 -3.563991
-4.243217 -2.017083 0.047571
-5.124550 1.715950 -2.664222
-5.273975 -1.421891 -0.651210
-3.355696 0.535463 1.210637
-4.456172 5.022738 -6.935058
-3.736465 -1.673240 -0.439811
-5.031906 -0.716361 -2.927634
-5.397575 -2.178176 -1.080448
-4.014707 -1.619090 -0.546691
-3.233509 0.523226 0.785731
-3.358726 0.666886 1.682187
-3.347717 0.032643 -3.444031
-4.748445 0.229124 -0.411042
-6.400750 -1.988821 -0.572131
-4.928554 0.406814 2.094755
-6.072744 -0.908247 -2.671628
-3.789839 -1.625497 -0.548175
-2.533045 -0.585505 0.763908
-1.745281 0.681716 1.226611
-0.420870 0.546296 0.989311
-2.638810 -0.522194 0.787370
-1.973894 0.292107 1.221116
-2.364408 -0.388556 0.854067
-0.872717 0.604656 0.890825
-2.486191 -0.433801 0.776695
-2.309139 -0.367424 0.801366
-1.912904 -0.331982 0.791817
-2.364807 -0.369625 0.787884
-2.011912 -0.358987 0.849136
-2.382202 -0.559820 0.754913
-2.173681 0.446562 0.647601
-0.728342 0.303292 1.125215
-0.935622 0.223599 0.890009
-2.130142 -0.390389 0.810184
-2.061374 -0.365747 0.841986
-2.534786 -0.416578 0.793688
-1.304931 0.599182 0.874483
-6.149584 -0.089358 1.271518
-4.652018 -0.951611 -2.697543
-4.402049 -2.029479 0.131856
-4.071083 -3.144761 -0.024394
-3.482056 -1.346168 -0.146255
-4.157709 0.264874 -0.671005
-4.036152 -1.617569 -0.474184
-4.714894 -1.000558 -2.757966
-3.493001 -1.704136 0.013780
-4.322526 -3.974609 0.218320
-3.285840 2.742496 -3.891527
-4.044825 -1.620349 -0.683491
-6.110118 -0.488405 -4.040270
-6.550794 -2.152943 -0.661000
-3.780795 -1.627123 -0.581073
-3.585926 -1.935252 -0.350026
-4.097243 -3.216424 0.005306
-3.920850 -2.084983 0.197275
-3.350144 3.007953 -4.222950
-4.916644 -5.165832 0.535321
-5.425737 -6.469820 0.898396
-4.321276 -3.793035 0.128585
-3.922178 -2.477540 -0.206483
-3.765492 -2.298210 0.318361
-6.292366 3.021899 -4.006245
-3.990977 0.600249 3.430254
-5.427961 -6.476302 0.896651
-3.075142 0.612728 0.935545
-3.782341 -1.609441 -0.475469
-3.071223 0.583756 0.604537
-3.756325 -1.584483 -0.511466
-3.842952 -1.278867 -0.275240
-3.872648 -1.198565 -0.323306
-4.255422 0.014032 3.709261
-4.080149 -1.822395 -0.159718
-3.709308 0.223921 1.310992
-5.415447 0.185320 -0.268963
-7.213696 -1.578899 -0.423139
-5.049203 -5.486266 0.632667
-6.757984 -1.771152 -0.251288
-4.881753 -1.124785 -2.883307
-4.167221 0.614878 1.864430
-3.849211 0.578430 1.170959
-3.512493 1.597208 -2.582396
-3.784237 0.611064 1.645824
-4.561068 -3.218498 0.736350
-3.921510 -2.074710 0.191708
-4.524495 -0.334919 -5.559394
-4.563768 -1.740799 0.062388
-4.137784 1.339399 -2.448560
-6.681674 0.063761 0.951759
-7.413311 -2.244885 -1.304738
-6.844869 -1.358133 -1.161391
-4.853710 -0.622722 -1.036570
-8.013285 -5.822981 0.441979
-5.944500 -1.238332 -0.375736
-5.003461 -1.843446 -1.089013
-6.151474 0.693084 -2.096982
-4.260067 0.010464 3.659934
-6.467326 0.351462 -2.622256
-5.402888 0.834240 -2.009907
-6.500625 -1.972456 -0.864286
-6.343906 -1.464681 -0.294511
-7.557949 -2.232738 -0.102274
-6.835642 -1.791469 -0.287682
-4.278720 -1.485186 -0.187148
-3.838651 -1.743099 -0.416904
-5.411360 0.639946 -1.861448
-4.712062 -0.451746 -2.954416
-4.666796 -1.476379 -1.073117
-5.174834 -2.779092 0.455416
-4.811435 -3.134988 0.664446
-3.921669 -1.832988 0.068697
-3.687916 0.220355 1.404673
-4.620677 -0.104065 4.850932
-3.812320 -1.862925 -0.381837
-3.944282 -2.233732 -0.284734
-4.055936 0.007083 -3.497821
-4.405532 -1.756288 -0.012638
-5.272817 -4.179599 1.011384
-3.953424 -1.343191 -0.189979
-4.565901 -2.523146 0.371810
-6.836038 -2.282756 -0.559557
-6.203728 -1.655454 -0.644670
-5.985705 -1.262765 -0.360140
-3.823988 0.781532 3.391243
-3.454820 0.588253 0.871153
-5.853939 -0.912551 -0.520907
-3.892986 -1.782449 0.043298
-7.554675 -7.986681 2.950946
-7.558430 -2.690939 -0.844293
-5.677957 -1.487241 -0.762412
-6.391257 -2.283660 -0.456804
-4.013296 -1.590173 -0.582045
-3.868452 -2.208062 -0.308587
-3.718407 -0.040372 -3.921865
-6.092508 -1.429380 -0.363319
-3.904113 -2.078284 -0.326273
-4.717705 -2.332975 0.252709
-4.052694 -1.759530 0.019112
-4.222487 -2.412227 0.346133
-3.757684 -1.556745 -0.556422
-4.714884 -0.455192 -2.956068
-7.116175 -0.882692 -3.234975
-5.392926 -2.617069 -0.292985
-6.213483 -3.713264 -0.032935
-5.227898 -1.576642 -2.030707
-6.306915 -7.005512 2.550618
-3.800049 0.773541 3.292439
-4.470672 0.699976 3.386091
-1.709899 2.287381 -3.146250
-1.949284 1.321470 -3.270542
-2.042128 1.313147 -3.251015
-0.473005 1.287972 -2.977397
-1.767337 1.268548 -3.327818
-2.007566 1.306705 -3.232798
-2.583970 1.291933 -3.550049
-0.775004 1.110062 -3.091518
-0.906583 1.349401 -3.066453
-3.288970 1.472076 -3.900290
-7.292568 -0.309387 -2.955153
-7.225351 -1.949483 -0.121891
-3.543480 -1.253262 -0.555050
-6.032104 -0.993116 -1.203356
-7.076075 0.114013 2.304833
-4.294555 -1.556408 -0.103353
-4.378031 -1.609196 -0.127905
-6.549046 0.802667 -2.312407
-6.386161 -2.256953 -0.406122
-6.467231 -0.999662 -3.172691
-7.013866 -1.913968 -0.180408
-3.354349 0.301897 0.670406
-3.775581 0.655772 2.104533
-6.715438 -0.159809 1.234992
-4.827607 -2.451833 0.319745
-6.113306 -3.508333 -0.085021
-5.266854 0.339346 1.765875
-3.505391 -1.422316 -0.184628
-4.623333 -0.671147 -7.238448
-4.665905 -0.700186 -3.058756
-7.656340 -1.905195 -0.230063
-8.112929 -1.978851 -0.304744
-5.889676 -0.044146 0.927875
-3.743605 -1.601167 -0.461116
-5.703414 0.587104 -1.869724
-6.444224 -2.255676 -0.407406
-4.237162 0.539391 1.200964
-3.777904 4.218915 -5.804139
-3.416071 2.024796 -3.047167
-6.133366 -2.240830 -0.425293
-3.797056 -1.761953 -0.169290
-3.416133 0.522940 1.177688
-6.321930 -1.447920 -0.301503
-4.887574 3.324837 -5.005936
-5.653719 -2.407540 -1.075912
-6.939268 -1.833450 -0.250801
-3.624955 1.643721 -2.669787
-6.880011 -2.044609 -0.563695
-6.278152 -2.128299 -0.642907
-4.907951 -2.752164 0.474904
-8.197609 -0.399984 2.102014
-3.672342 0.632140 1.772975
-3.423264 0.580456 2.054090
-9.611037 -16.143316 3.495387
-4.183491 0.823781 4.473588
-3.558124 0.707960 2.320616
-5.327924 12.173350 -15.723988
-7.662465 -2.651511 -0.833476
-3.444123 0.573304 1.938761
-7.683458 2.366029 -3.897129
-8.051229 -1.161745 -3.736935
-4.193028 0.857699 4.578895
-1.116252 0.361983 1.410517
-2.177912 2.404193 -2.586065
-0.795835 1.499408 -3.096366
-1.656958 1.395117 -3.153516
-4.662996 1.672530 -4.762975
-0.859849 1.397882 -2.955197
-0.923945 0.523249 -3.466136
-1.793430 1.742004 -2.802312
-3.699303 -1.780273 -0.398925
-3.682868 -1.769889 -0.020765
-6.409305 -2.074520 -0.538999
-4.373887 -1.601973 -0.132576
-4.391584 -1.434106 -0.574622
-7.487354 -1.216995 -3.656160
-7.414276 3.915172 -6.317866
-3.848507 -1.840945 -0.139707
-4.898321 -0.558612 -3.126548
-4.389261 -1.184954 -0.644932
-5.340990 -2.446613 -0.332249
-4.063962 -2.455251 -0.222458
-4.210474 0.054242 3.155939
-4.141812 -2.585759 -0.179436
-3.392182 -1.562752 -0.063133
-3.750274 3.658599 -5.062800
-5.254549 -1.555648 -2.071767
-8.994342 -5.469254 0.348719
-4.495810 -0.488697 -2.856788
-4.518770 1.080821 7.440886
-4.086296 -2.501104 -0.210738
-3.853435 -2.957844 -0.076785
-5.444590 0.079143 -0.282040
-3.985841 4.399820 -4.902736
-3.425503 -1.650423 -0.029503
-2.961977 2.075434 -2.468191
-5.587617 -7.297085 1.115657
-3.541498 -1.875699 -0.360690
-5.052675 -1.819790 -1.086629
-3.951397 0.289058 -0.366713
-5.339923 1.118638 8.929116
-3.866983 -1.881733 -0.412973
-4.244567 6.131521 -6.512700
-3.582941 1.775741 -2.811709
-8.629111 -3.012989 -0.120059
-3.401864 -1.448907 -0.083096
-4.127063 -3.309854 0.031995
-3.353165 -1.517282 -0.101161
-5.581017 0.701423 7.434721
-5.406103 -6.622486 0.935892
-3.510395 -1.637570 0.003483
-5.475846 0.172663 -0.283262
-4.084420 -1.751809 -0.304643
-4.063016 -3.226306 0.006885
-3.410819 -1.627418 -0.046055
-5.852414 -7.583357 1.197850
-4.534508 -4.652943 0.413383
-4.137247 -3.676772 0.139134
-3.438858 0.581371 2.482438
-4.873025 -4.939815 0.514418
-7.138412 -2.402412 -0.360214
-1.536189 1.410594 -3.186394
-0.852536 1.030704 -3.132411
-3.299804 1.604074 -3.965050
-1.299555 1.384716 -3.129506
-1.456540 1.422896 -3.186781
-2.909107 1.568206 -3.676384
-3.949539 4.022828 -5.538700
-0.895692 0.539403 -3.448252
-4.728316 -0.457023 -5.969275
-3.422056 -1.651582 -0.051443
-3.075176 0.690630 1.913970
-8.855121 -1.505497 -3.566023
-7.315307 -1.178392 -3.520061
-4.112818 2.809116 -3.300605
-3.202647 -1.793200 -0.374295
-4.194616 -1.868564 -0.380971
-2.870229 1.134123 -3.158753
-3.510933 0.738962 2.832751
-3.294822 -2.181565 -0.277761
-3.411185 -1.628640 -0.060739
-3.201282 -1.789785 -0.375273
-3.796469 -2.862563 -0.137610
-5.789325 10.181324 -13.314348
-3.961547 4.047517 -5.571827
-4.431285 -5.052741 0.460086
-3.446703 -1.562001 -0.026483
-5.557600 -0.027851 -0.889475
-2.785522 1.195966 -3.327167
-3.551491 -2.773156 -0.142398
-3.019196 -0.337786 0.736919
-5.154638 -2.107246 0.316423
-3.547369 -2.729340 -0.108645
-5.455974 1.142344 8.291019
-3.309549 0.145572 2.821010
-5.347707 0.253943 -1.644864
-4.091537 -1.783309 -0.284608
-3.926903 -3.256618 -0.006484
-3.465778 -1.114559 2.437777
-2.892584 1.348557 -3.084138
-12.277686 3.600280 -5.936145
-4.106802 -1.727889 -0.588874
-3.102913 2.007145 -4.653003
-5.423497 -0.754184 -3.551066
-4.063433 -1.802374 -0.182886
-4.613225 -5.179595 0.475281
-3.687597 -1.104519 2.329379
-5.957479 -4.214766 6.280877
-3.060523 -1.265332 -0.530153
-4.122715 0.355948 0.391557
-4.003134 -1.347645 -1.192494
-3.255006 1.993780 -2.533980
-3.481632 0.107567 -2.949108
-5.007536 0.085081 1.624453
-4.975503 -2.991011 0.598891
-9.406379 -0.267156 0.371762
-3.369943 0.748723 2.783973
-4.895351 -2.439349 0.314573
-8.718598 -0.481772 -3.602108
-11.849899 1.582081 -4.216773
-4.108213 -1.737894 -0.538189
-7.127760 -8.849270 1.593373
-10.164745 -0.797593 -4.201432
-3.714118 0.781322 3.399940
-7.362390 -2.682185 -0.283947
-6.961071 -2.413518 -0.323926
-3.618891 4.234426 -5.777142
-5.861744 1.407338 12.507888
-13.668200 -2.333076 -4.486190
-4.026732 -2.289667 -0.302760
-4.112879 0.190253 0.696137
-11.667420 -1.141127 -3.661165
-3.535734 0.243462 1.313922
-4.782374 -3.428365 0.828889
-5.449632 -1.975503 -0.456356
-4.980281 -3.049575 0.616250
-4.898279 -0.443041 -6.077124
-7.324250 -1.642421 -0.418252
-9.006846 1.429232 -3.404010
-4.614152 4.636857 -5.162735
-5.503374 1.384441 -2.506933
-11.686382 -0.873663 2.684656
-4.438065 -1.243541 -0.647542
-6.084904 -0.007100 0.031777
-3.419865 1.764364 -2.756918
-4.927155 -0.539435 -3.172037
-3.783497 0.588402 1.315714
-9.019108 -0.686080 -3.945444
-4.760698 -2.913576 0.562055
-4.094544 -1.900245 0.086652
-10.316939 -1.657399 -4.613631
-3.783617 -1.711675 -0.430217
-4.708961 1.729677 -3.072591
-5.699088 1.547160 -2.714777
-4.406588 -2.506028 0.376179
-4.903933 -0.140753 4.827565
-7.819366 1.626526 -3.296376
-5.438338 0.036233 -0.900985
-8.593532 -1.780428 -0.773237
-7.534892 -1.670853 -0.246832
-3.759055 -1.564403 -0.555958
-7.220979 -1.243941 -0.836335
-9.611152 -2.178190 -0.726452
-6.417436 -1.790491 -0.628672
-11.009918 0.204986 -4.573243
-6.179424 -1.877362 -0.577146
-5.889326 -1.995102 -0.768278
-4.004865 -1.343483 -1.199690
-12.113785 -2.116625 -5.359548
-9.329274 -0.534337 -3.911132
-9.104803 1.565215 -3.601632
-4.002827 -0.613303 1.269781
-2.095566 -0.374072 0.841785
-2.334441 -0.394791 0.840162
-1.549617 0.558301 1.015002
-1.007669 0.578320 0.832115
-0.469159 1.495823 -2.890261
-1.578537 1.239480 -3.206501
-1.963380 1.284651 -3.211086
-0.938228 1.467366 -2.959335
-1.694381 1.254703 -3.247223
-1.922594 1.238551 -3.263906
-1.624050 1.231097 -3.183464
-6.508576 -1.841462 -0.560761
-3.054637 2.023263 -2.965843
-7.745520 -0.281708 -4.699452
-3.622161 -0.114891 -4.249671
-8.387893 -0.584186 -3.716660
-3.411147 0.630670 1.437909
-5.769424 0.952631 -2.257161
-5.781132 -3.679689 0.037413
-3.494616 3.035896 -4.277818
-4.873620 -0.517218 -3.115866
-4.133095 -2.241302 0.267738
-8.098559 3.295052 -5.804770
-8.847188 -0.227785 1.056255
-8.227991 -0.034521 0.673318
-6.337314 0.057985 -0.280494
-5.138288 -0.637389 -3.372845
-6.978700 -0.731603 -4.831839
-7.358077 -0.021668 0.352271
-6.613404 0.048159 0.022918
-6.729392 -1.956212 -0.590552
-8.533317 -1.800708 -0.748832
-6.334715 -2.298309 -0.426160
-3.520047 3.847849 -5.267466
-7.392831 -0.221236 -3.028220
-3.708203 -2.255364 -0.264092
-1.613382 0.542783 0.976584
-2.683614 0.280528 1.264472
-1.639779 1.256890 -3.281317
-1.452470 1.435442 -3.178698
-2.085835 1.329043 -3.274093
-1.990594 1.406159 -3.210181
-2.760188 1.601447 -3.735318
-1.803453 1.278698 -3.317436
-3.007113 1.626948 -3.772863
-4.394611 0.141804 1.083131
-11.813625 2.071600 -4.697456
-4.782934 -0.790311 -3.200178
-8.022101 0.323121 -3.361372
-4.414646 -1.278425 -0.625620
-6.846223 -1.881511 -0.242532
-10.994036 -0.609642 -4.470003
-4.972774 -2.310609 -0.358961
-3.745215 0.177721 2.003419
-3.959174 -2.203688 -0.289541
-5.063327 0.407529 1.879012
-6.397211 -1.910464 -0.882129
-12.067999 -0.932899 2.844489
-9.856642 -1.653304 -3.886834
-6.268463 -1.263642 -1.072657
-8.344612 -2.295114 -1.098023
-4.502913 -2.878444 0.565420
-3.847278 -1.774120 -0.438950
-2.510681 -0.390631 0.854944
-2.056273 -0.460459 0.832305
-6.029901 -2.030742 -0.692716
-5.389784 7.063547 -9.456875
-5.232705 0.905867 10.379018
-4.627561 -5.565832 0.589060
-4.483099 -1.687767 -0.051772
-6.197151 -1.779458 -1.155194
-4.593455 -5.336651 0.555194
-10.482814 -18.314867 3.974527
-4.612183 0.951363 6.291271
-3.922301 0.720911 5.307094
-5.771704 -8.960805 1.554745
-5.466133 -7.948771 1.347392
-7.080119 -0.074281 -0.134766
-7.775670 -14.413275 3.005961
0.645505 1.457910 -3.679150
-2.248295 1.290346 -3.385248
-1.849097 1.401648 -3.241886
-2.269223 1.271767 -3.420515
-4.204659 0.896994 4.826859
-13.021008 -1.439287 -4.132720
-5.298828 -1.960346 -0.501245
-4.240305 -1.716209 -0.460221
-3.984483 0.666028 2.285329
-12.378947 -3.553015 -2.080159
-7.562221 -0.256712 -0.117237
-6.142920 -0.516787 -4.063432
-3.916985 -3.248307 -0.007403
-5.309325 -0.230996 6.791316
-7.287261 -10.549974 2.031774
-8.807337 0.127091 -2.599591
-7.513868 1.182098 17.738590
-5.122441 0.839213 8.735255
-7.006914 -9.780045 1.898035
-3.297382 0.223996 1.656016
-4.087525 -0.086959 5.215655
-11.169079 0.649936 -3.356071
-12.041906 -0.478378 -3.546884
-4.586144 -4.121325 0.155491
-16.394152 -3.525985 -1.598608
-4.281336 1.705375 -2.483137
-11.214234 -0.820601 -0.227882
-4.250692 1.390497 -2.225519
-13.624330 -3.080674 -2.485373
-10.558354 -1.545148 -1.404471
-3.782835 0.163773 2.350594
-5.092546 0.086091 0.355940
-6.411672 -0.124522 0.209950
-11.659596 -0.557352 0.790025
-17.544889 1.284663 26.961227
-18.381889 -0.786664 -4.070733
-5.459865 1.535789 -2.662778
-8.319222 0.717420 8.362420
-13.884558 -14.555486 2.775768
-12.830775 -13.134959 2.430947
-14.788762 -1.340783 -0.220189
-7.117762 0.051950 0.374538
-6.103845 -0.488076 -4.062041
-5.751756 -3.186969 0.615589
-6.893285 1.499470 -3.402820
-7.565020 1.234033 -3.272460
-20.260735 -4.141692 -2.300081
-9.255942 -0.368279 0.017478
-10.288175 -0.703869 0.269740
-6.076600 0.768052 8.811362
-14.324699 -1.668414 -1.581771
-11.310434 -0.834972 -0.113872
-3.986062 0.108695 2.713652
-3.984120 0.182997 1.817976
-5.324235 -2.802596 0.480237
-3.842456 -2.091010 -0.296884
-18.202269 -2.691092 -4.470370
-19.588394 -1.143007 -5.560840
-8.351795 0.300638 -3.530507
-6.055023 -3.633393 -0.025941
-7.490256 -0.019333 0.399871
-4.001905 0.744559 2.802832
-5.177396 1.771350 -3.188596
-4.875642 0.822155 4.731587
-4.190904 -1.545403 -0.521559
-3.452721 0.638684 1.616485
-3.970365 0.394194 0.262929
-3.826050 -1.972317 -1.143981
-5.560013 13.605023 -12.848053
-4.442733 0.939598 6.051795
-4.378953 0.398929 0.571383
-14.116821 1.550965 -4.674351
-8.510653 15.957731 -15.350306
-10.196033 -0.824285 -0.797993
-11.819539 -0.673045 1.686160
-5.458784 0.037908 0.588327
-7.950601 1.321782 -3.091513
-14.497330 -0.034105 -4.075031
-9.699932 -0.798850 -4.273324
-8.530860 0.835800 -3.191725
-4.333248 1.688327 -2.921687
-19.740755 -3.085086 -2.853196
-14.207781 -1.095600 -0.219469
-18.928146 -3.056062 -2.293867
-11.529480 0.546835 -3.639347
-0.826925 0.772490 -3.319639
-4.156585 0.563184 2.381037
-3.714416 1.752821 -2.368112
-3.773866 -1.970223 -0.962669
-10.509631 10.832954 -11.299427
-4.108456 0.610529 3.235642
-5.367119 -2.350714 -0.349643
-3.184030 0.718975 2.360707
-15.400111 -1.831674 -4.711663
-4.722976 -2.202505 0.198304
-4.053670 -1.771257 -0.200125
-10.442654 -0.870948 -4.310112
-9.235164 -2.713381 -1.113744
-6.020975 0.116053 0.364610
-10.258723 -2.200030 -3.783913
-4.132219 0.051998 3.247469
-6.570605 1.912632 -3.776932
-4.647082 1.887518 -3.199706
-3.493164 2.182109 -3.262702
-9.735104 -1.597945 -3.747030
-4.441220 -2.593697 0.317019
-12.620543 -3.358108 -0.573887
-7.952464 -0.345955 0.766694
-10.656434 -0.753062 2.310946
-6.526320 -1.848081 -0.563133
-7.975426 0.271273 -3.282781
-7.825235 -0.284680 -0.711892
-10.390349 -0.632826 1.071879
-4.173759 -1.691466 -0.027834
-12.280040 1.075393 -4.339043
-4.037164 -1.690540 -0.434508
-6.607316 -2.022600 -0.599832
-8.194821 0.413669 -3.319051
-4.066576 -1.791214 -0.188020
-4.402691 1.906405 -3.162187
-4.052808 -1.720598 -0.549173
-12.116450 -3.163789 -0.613935
-9.945209 -2.865019 -0.994004
-1.421455 0.485713 0.691279
-3.411773 -1.519812 -0.049350
-2.896503 1.929010 -2.812720
-4.236332 -1.821938 0.044730
-11.152456 2.951027 -5.174079
-5.938074 -1.565649 -1.138376
-7.966897 -11.831347 2.433578
-3.460550 -1.994221 -0.320596
-7.840739 -0.109208 0.810354
-4.059433 0.369147 -0.002392
-3.576651 -2.321302 -0.258255
-3.591572 -2.361376 -0.246955
-3.535608 -1.760980 0.050865
-6.257171 0.349307 -2.560350
-12.064567 -2.733935 -2.037033
-6.063056 -1.679924 -0.903797
-4.067354 -2.381606 -0.271710
-4.333034 0.728053 5.754855
-3.682435 -2.239237 -0.290111
-4.085536 -3.173892 -0.032670
-6.695055 -2.260803 -0.371467
-3.421474 -1.625437 0.006441
-5.135774 -6.520130 0.877260
-3.495032 0.167126 2.339565
-20.177008 4.672067 -8.848408
-7.460483 1.052831 15.586705
-3.316528 2.915798 -4.118833
-7.844564 3.448775 -4.803490
-12.000257 -1.877461 -1.337132
-7.702442 -0.011717 0.910044
-3.893270 -3.174021 -0.027830
-4.797087 -2.310873 0.244530
-3.694783 0.664268 3.975648
-7.004283 0.125697 1.407889
-4.169009 0.744349 6.017846
-1.649969 1.400801 -3.175477
-1.175714 1.265953 -2.939854
-10.060373 -1.868218 -4.044288
-11.403173 1.124590 -4.194022
-11.825129 -1.977795 -3.969060
-9.848138 1.890274 -3.949471
-7.044178 -0.036568 -0.408046
-10.206802 -0.607495 0.809440
-8.807150 0.967574 -3.049580
-9.620517 -2.471841 -1.320448
-4.156223 6.878159 -9.050576
-3.713938 0.228363 1.185142
-3.669510 1.963225 -2.534976
-10.882058 -0.919818 -4.862544
-6.551040 -2.278553 -0.501033
-3.788986 -1.628593 -0.544728
-4.030407 -1.605143 -0.693991
-4.672376 -2.360528 0.297316
-3.787860 -1.740222 -0.174391
-8.801341 -2.515859 -1.098565
-5.961980 0.098709 -0.300057
-5.422630 -4.839878 0.378258
-9.728130 0.822023 -3.116774
-3.495882 0.295092 0.402113
-3.720744 0.226342 1.199954
-4.270515 0.135391 1.517565
-10.765239 -2.938217 -1.412353
-7.808828 -1.848719 -0.354775
-6.635653 0.930141 -2.417719
-3.161432 2.283380 -3.304249
-4.065766 -1.634141 -0.736315
-7.588511 -0.249892 -0.685798
-9.272026 -0.486046 1.251054
-10.138778 -2.739418 -1.344135
-10.956606 -3.214522 -1.470754
-3.142130 1.932002 -2.886551
-5.537358 1.185131 -2.368020
-13.696559 -4.184400 -1.546575
-7.040442 -2.394579 -0.565460
-3.793267 -1.681359 -0.492548
-3.862515 -1.863037 -0.130775
-3.909733 -1.685385 -0.004694
-3.858433 -1.953482 -0.414192
-9.740370 -0.819214 -4.285814
-7.373417 0.085209 0.463030
-7.332280 -0.275986 -0.787755
-37.202381 -3.573775 5.241216
-4.700933 8.743302 -11.458312
-7.833868 -6.901442 2.339437
-10.943569 -3.118739 -1.386690
-6.565372 16.492817 -21.216215
-2.115793 1.245013 -3.282667
-2.139229 1.869460 -2.928951
-5.562795 1.905729 -4.967446
-3.916151 -1.970613 -0.374933
-3.857421 0.639193 1.931306
-3.804314 -1.795596 -0.153476
-5.679893 1.281724 -2.518475
-5.602283 0.014380 0.665615
-5.255576 0.065296 0.471149
-4.150073 -2.836973 -0.130841
-5.647712 1.771797 -2.940176
-6.919729 1.085289 -2.598236
-3.574708 2.872980 -4.078765
-4.006597 -1.512674 -0.766981
-3.989334 -2.352803 -0.269975
-8.413701 0.831405 -2.849539
-3.825700 1.979910 -3.111888
-3.913139 -1.976081 -0.382570
-3.835810 -2.812694 -0.097586
-3.489167 -2.038094 -0.354335
-7.978281 -1.164837 -3.695967
-3.426419 -1.630632 0.005740
-3.822645 -1.811498 -0.128740
-5.438133 0.161902 -0.321977
-3.544658 0.628881 3.126584
-2.989406 2.785003 -3.093074
-3.186551 3.612703 -3.858385
-7.785491 0.391729 -3.213193
-8.740067 -1.382753 -4.086503
-6.668000 -0.719835 11.743882
-7.779198 -1.862909 0.014225
-12.139400 -2.665056 -4.760894
-8.486956 1.164481 -3.415936
-4.803630 -0.790754 -3.210852
-10.945731 -1.725943 -3.375666
-3.841755 -1.993199 -0.348022
-8.204911 1.251087 -3.068140
-5.130651 2.137786 -3.610896
-9.701042 -0.542730 -4.039769
-8.639130 0.287567 -3.419088
-9.891040 -0.551038 0.936700
-6.965800 -0.101522 -3.672421
-9.188892 -6.426620 0.651276
-9.446450 -2.125229 -0.722284
-5.538557 0.010331 0.712796
-3.905515 -2.148649 -0.330243
-10.769787 1.648201 -4.031872
-4.002023 -1.350043 -1.194178
-6.017910 0.703290 -2.088410
-14.773149 2.365574 -5.602875
-5.897136 0.889026 -2.207747
-9.069426 -3.511115 -0.313261
-12.289563 -13.499084 5.439040
-5.551709 1.745805 -2.892287
-11.122812 -0.443943 1.050520
-6.091798 -0.064631 0.968973
-8.051334 0.354998 -2.414433
-12.351056 -2.756095 -1.537111
-8.143904 -0.215594 -0.260949
-9.394099 -0.519063 -2.415137
-10.671683 -3.061618 -1.792437
-10.918428 -2.150620 -1.137155
-8.204265 0.346978 -2.454933
-6.062271 -2.024964 -0.516177
-6.230553 1.220701 -2.578728
-7.185654 -2.394628 -1.011020
-7.293681 -2.415473 -0.568331
-8.047606 -0.293335 -2.125789
-4.030852 0.053922 3.319620
-18.106356 -0.972402 4.684653
-3.773836 -2.013022 -0.336344
-8.190271 -0.336328 -2.104369
-8.484557 0.505221 -2.773368
-13.050362 -3.238509 -1.883189
-5.026660 -2.105296 -0.405993
-12.556841 -0.474332 2.980958
-19.548042 4.302948 -8.582294
-2.125964 1.243583 -3.319107
-1.877396 1.389101 -3.194487
-0.688449 1.488045 -2.523150
-0.688633 0.793937 -3.252052
-0.988275 1.371553 -2.992813
-0.996716 1.779357 -2.366318
-1.485847 1.409355 -3.171213
-2.314739 1.238209 -3.390148
-0.964359 1.382680 -3.128722
-1.109349 1.525802 -3.064309
-0.949055 1.464770 -2.970385
-0.904874 1.402327 -2.987318
-2.079387 1.258373 -3.333724
-3.127428 -0.018842 -4.125232
-2.126237 1.248587 -3.322259
-2.028554 1.252522 -3.254549
-0.770171 0.772851 -3.254178
-2.228170 1.284855 -3.343452
-0.921880 1.368046 -3.099707
-0.113331 0.301860 -3.253853
-2.403451 1.245237 -3.436368
-3.565506 1.847778 -2.544575
-3.644881 -1.703548 -0.048098
-4.517727 -2.147815 0.191049
-3.564179 1.975383 -2.593228
-5.892897 0.778352 -2.337963
-6.331826 1.231977 -2.647295
-3.313380 0.113785 -2.924285
-5.568046 0.028085 0.208082
-5.109424 0.197320 -0.048190
-3.823774 -1.709907 -0.472726
-6.985762 -2.279274 -0.497258
-4.927468 -0.855751 -3.312420
-7.025790 -1.407382 -0.315289
-5.203417 0.036812 1.043905
-4.514845 -1.777607 0.023233
-4.454293 -1.689551 -0.088403
-4.877877 -1.864427 -0.477475
-3.935906 -1.777203 0.047954
-2.861211 -0.297778 -0.797483
-3.865737 -1.256885 -0.566535
-3.731374 -0.080867 -4.082432
-3.187503 0.606068 0.982635
-4.994030 0.851857 -2.131406
-3.386842 2.644886 -3.780545
-3.826830 -1.823747 -0.143033
-3.983381 -2.891237 -0.073596
-4.310267 -1.543647 -0.083788
-3.841941 -1.735730 -0.467710
-3.912900 -1.337282 -0.186602
-3.731465 -1.976759 -0.356178
-3.452811 -1.695698 -0.408003
-3.382021 -1.583161 -0.063113
-4.892794 0.127057 -0.046966
-3.611384 -1.653726 -0.426166
-3.621632 3.891873 -5.356315
-5.152943 -1.937280 -1.067692
-7.077300 -1.431100 -0.311786
-5.939462 0.831406 5.313675
-6.681309 -2.013642 -1.157159
-4.681468 0.642596 4.599997
-4.293027 -1.730916 -0.065743
-2.863760 -0.303927 -0.795913
-7.366460 1.446865 -3.091233
-7.595016 -2.059064 -0.888548
-3.579005 -1.985390 -0.311103
-3.385656 -1.589330 -0.061899
-3.466226 0.588005 2.130882
-5.059599 -5.568072 0.568784
-3.406459 -1.539455 -0.036163
-3.509314 0.128851 2.921663
-4.208739 -2.950109 -0.087460
-5.502709 0.949741 6.484585
-7.698987 -0.100928 0.017965
-5.959877 0.049764 -0.544073
-7.742067 -2.425535 -0.184968
-3.447637 -2.009706 -0.327142
-3.395094 1.939570 -2.955106
-9.484954 -1.428161 -3.245634
-7.392375 -2.454284 -0.867051
-6.411929 -1.960478 -0.687514
-14.473133 -0.672011 -2.968337
-5.146248 -0.233081 5.716910
-9.805550 -2.222149 -0.708951
-4.384250 -0.020053 4.109335
-22.574421 -2.343971 -1.043995
-19.194532 -2.220765 -2.243128
-24.663149 -4.319417 -2.528273
-4.065777 0.202388 0.868665
-5.709648 1.267143 -2.441636
-17.864012 -2.683149 -2.496395
-17.186430 -1.608490 -4.107329
-6.791125 12.914656 -12.298070
-7.219492 -0.031274 0.106552
-12.243448 -0.841091 0.465438
-24.964636 -11.341318 -21.148647
-6.948886 1.696715 -3.105097
-7.246974 -1.944576 -0.334397
-5.342966 0.280133 0.503502
-10.063660 0.492992 -3.252107
-7.574519 -0.111419 -0.040742
-17.254314 -1.956361 -0.609251
-5.933871 -0.061313 0.360752
-17.415819 -1.692051 -4.148339
-9.043154 -0.566469 -1.004051
-6.096991 0.230671 0.445982
-5.245523 1.368675 -2.393152
-13.766739 -3.164927 -1.225694
-5.826286 -0.011708 0.361118
-8.056333 0.014500 1.153402
-9.689855 -0.460132 -0.534958
-9.836818 -2.249320 -0.707094
-8.413960 1.265216 13.068552
-21.121004 -3.285065 -2.955146
-3.661458 0.236774 0.884657
-3.408520 -0.664991 -0.533465
-6.957911 -1.586009 -0.405484
-3.424717 0.195465 2.056382
-8.220790 1.202241 12.500865
-6.511907 -0.180487 -0.883282
-6.842709 -2.000346 -0.546017
-3.816733 1.818054 -2.464371
-4.343160 -0.044217 4.477480
-6.918819 0.600459 4.835092
-7.905828 0.621638 6.075896
-8.577705 0.035071 -1.654552
-6.093132 0.461427 2.780441
-5.765713 1.498844 -3.089658
-4.059813 -1.709798 -0.547591
-3.368027 2.773374 -3.923105
-3.951128 0.696254 2.626674
-3.218076 0.627111 1.248271
-32.372322 1.929071 48.772434
-8.857451 2.410416 26.407766
-10.701145 -0.534545 -0.270138
-5.503601 0.646012 5.915182
-12.664104 0.063287 -3.330406
-5.433115 1.046956 7.874429
-4.493505 0.635083 4.137855
-12.006535 -0.740728 -0.172878
-5.464343 1.052119 7.969569
-10.308645 -1.822946 -4.797637
-11.094140 -0.416069 -2.321238
-14.457460 -2.404944 -1.205514
-16.763149 -2.065511 -5.253329
-13.723316 -2.019768 23.253571
-5.741217 0.649317 4.680219
-9.026010 0.765296 9.974962
-23.866196 1.346594 35.725208
-8.419955 0.027626 -1.654614
-22.284830 -3.683840 -2.809160
-12.303607 -0.554857 1.384131
-6.032978 1.653644 -3.316062
-13.761942 -1.009678 -4.124935
-15.590057 -1.572752 -0.610492
-4.510790 1.822508 -3.308185
-4.754768 0.107713 1.414243
-4.019346 4.248813 -4.661489
-13.707252 -1.475733 -4.326034
-16.304499 -2.838495 -5.476231
-6.734288 0.115962 0.847503
-12.022655 0.714129 -3.645948
-13.662501 -2.700107 -1.478607
-7.692276 -0.337494 -0.795085
-1.948209 1.301012 -3.278883
-4.980201 1.993770 -5.030054
-3.800801 4.165503 -5.705616
-7.266740 1.683691 -3.715466
-7.685641 -1.781998 -0.365673
-5.920933 0.327021 -3.571884
-6.002402 7.968363 -8.319841
-12.052179 -2.199494 -3.364016
-14.690525 -3.895101 -1.818110
-10.876856 -1.866604 -3.064239
-3.780271 5.272770 -7.047091
-6.412740 -2.133191 -0.404383
-5.783129 14.225204 -18.273136
-8.578456 -1.470778 -3.418919
-7.155953 13.408298 -17.603510
-3.781476 1.676604 -4.157340
-1.226052 1.286010 -2.977607
-3.234231 3.225893 -4.469200
-8.334729 0.542128 -2.567195
-3.826109 0.672415 2.256117
-7.440553 0.045760 0.879784
-6.171605 -2.093042 -0.472411
-4.118550 -1.679270 -0.736322
-4.759028 8.897153 -11.617986
-3.094147 3.233716 -3.526544
-5.251202 2.166302 -3.003402
-3.668923 -1.517998 -0.164232
-5.956945 -0.139341 -2.303603
-21.109112 -6.253284 1.077121
-9.995287 -3.840488 0.225715
-3.767454 -1.133823 -1.834972
-8.035158 -4.223104 0.614012
-7.070178 -3.421265 0.179592
-12.347499 -4.775623 0.421877
-3.613531 -1.408923 -2.297895
-3.724871 -1.460021 -2.342966
-3.326448 -1.024284 -1.943686
-6.569401 -0.545630 -1.238283
-1.678199 1.553215 -2.604489
-1.814179 -0.541158 -1.293736
-2.042253 0.182750 -3.558048
-1.802255 0.961119 -3.061344
-3.476412 1.613612 -1.845681
-2.717640 -0.647105 -0.345229
0.697755 0.806686 -0.440985
-1.325742 0.244642 0.281594
-1.173176 0.192534 0.225871
-7.667268 -6.274244 1.336457
-1.991138 -0.009524 -0.342585
-2.533781 1.489646 -2.625526
-4.556974 -0.189598 -3.342683
-1.885867 0.651550 -3.159257
-1.006802 -0.325369 -0.197333
-2.273700 -0.887904 0.026088
-5.596158 -0.193989 -3.534975
-0.081599 0.668084 0.551612
-3.803156 -1.090853 -0.815615
-2.341139 -2.141445 0.149864
-0.242576 0.533954 0.641944
-1.534829 0.932910 -2.898141
-0.105998 0.189692 0.373148
-2.861731 -1.082116 -0.387138
-1.339456 0.247199 0.289455
-1.014606 0.808339 0.317436
-4.941479 -0.255120 -3.497565
-2.107410 0.633357 -3.319870
-3.494548 -0.425085 -3.086215
0.184179 0.805634 -0.328039
-0.109655 0.034651 0.323270
-0.402949 1.228469 -2.556336
-1.474146 0.940878 -2.860620
-2.176599 0.806934 -3.268520
-0.701726 0.803448 0.065180
-0.559076 0.101172 -0.300456
-8.171862 -0.754832 -3.545791
-2.182258 -0.839366 -0.826825
-1.664060 0.750465 0.211510
-2.440542 -0.685414 -0.109792
0.658325 0.771166 -0.489813
-6.120622 0.658984 -2.572481
-2.394424 -0.956843 -0.516001
-1.763923 -0.872318 -0.297013
-2.220351 -1.037107 -0.399840
-0.220649 0.537805 0.624742
-1.154435 -0.502327 -0.777290
-3.767905 -1.719116 -0.842631
-3.173831 -1.196196 -0.161507
-6.588402 -0.482188 -3.081636
-2.933126 -0.798611 -0.870550
-0.264672 0.679269 0.610310
-1.103195 -0.230100 -1.207286
-2.195967 2.107915 -2.557527
-0.089827 0.819020 -0.094422
-1.744893 0.313100 -2.307075
-2.231901 -0.735002 -0.237325
-2.732533 -0.660362 -0.499521
-1.199767 0.162703 0.460024
-1.937024 -1.050353 -1.049339
0.056566 0.142007 0.233378
-0.293652 0.673648 0.631379
-2.947697 -0.535644 -0.351315
0.239482 0.816254 -0.252780
-0.718984 0.283502 0.249819
-0.099010 0.057378 0.327664
-0.316668 -0.056156 0.465320
-8.506677 -3.399374 -3.668078
-2.388035 2.096901 -2.616124
-1.106026 0.246282 0.188090
-0.035374 0.663043 0.483618
-4.687043 1.777675 -3.504804
-2.056477 1.123058 -3.093261
-6.155495 1.894367 -4.506706
0.371249 0.766414 -0.270800
-0.807381 1.335003 -2.629673
-2.185653 2.041534 -2.364247
-1.781759 0.341762 -3.579739
-0.420750 0.793319 0.024880
-3.908364 -2.228286 0.095214
-0.294058 0.836417 0.074065
-1.808041 0.769594 0.911666
-2.039830 -0.847228 -0.325729
1.470885 0.573035 -1.129217
-3.629178 -1.216665 -0.258783
-1.635734 0.035227 -3.624261
-1.952727 -0.410998 -0.099905
-1.263593 -1.002541 -0.404954
0.653582 0.782655 -0.174855
-1.303753 0.472228 -3.424523
-3.143464 -1.355826 -0.710164
-1.670890 -0.817717 -0.622374
-2.634312 -0.965888 -0.444630
-1.974200 0.143213 -3.449503
-3.701066 -1.130654 0.070282
1.450558 1.194615 -2.090253
1.009910 0.803541 -0.423030
-0.532610 0.637961 0.739944
-0.175239 0.697000 0.555874
-1.339132 0.222895 -3.162786
-3.415671 -0.899616 -1.930748
0.324486 0.707790 -0.678919
-4.027935 -1.960975 -0.884388
-0.784634 0.514565 -2.995083
-2.751878 -0.899646 -0.487538
-0.365243 -0.355972 -2.131131
-0.105204 0.679232 0.483860
-0.406913 0.361722 0.147785
-2.399207 -0.926550 -0.818697
-0.035696 0.114589 0.291258
-0.908046 1.230590 -2.894024
-0.561017 -0.011589 0.667667
-1.162399 0.328754 -2.833328
-6.104871 -4.471544 0.801814
-1.486826 0.305497 -3.330252
-3.534269 -1.420309 -2.341644
0.220120 0.200737 0.137596
-6.619278 1.515434 -2.269105
-11.283129 3.416474 -4.771782
-3.542795 1.795535 -3.369422
-3.709954 0.178692 -3.308505
0.120874 1.308550 -2.560214
0.381003 1.261718 -2.437243
-2.290200 1.173283 -3.406710
-2.026200 1.334765 -3.072508
-2.416447 2.116531 -2.469193
-0.011006 0.472484 -0.094737
1.470183 0.570885 -1.130613
-2.524389 1.562117 -3.596386
-1.067251 1.358178 -3.070454
-11.106097 -3.000677 -1.187915
-6.142835 -2.642833 -0.308177
-3.684519 0.541876 1.949722
-3.015223 0.729455 2.450928
-3.916526 -1.956950 -0.098358
-4.105096 -1.793673 -0.278135
-4.572093 -1.544770 -0.531487
-3.755329 0.687357 2.110540
-4.328276 -3.062036 -0.047824
-4.526660 -3.409503 0.043177
-6.862396 0.911003 7.310704
-5.337427 0.603724 4.987921
-11.400691 -2.002567 -3.192093
-5.719334 -2.551462 -0.308733
-4.864984 -1.790858 0.244695
-4.511663 6.014425 -6.097777
-3.340564 0.709148 2.353371
-6.631970 1.100164 -2.879202
-4.364656 -4.158404 0.299238
-4.117558 -3.686069 0.106498
-2.940822 0.286890 1.311938
-10.513490 -2.238456 -3.790001
-8.220125 2.149823 -3.769711
-16.769913 4.648095 -7.784594
-3.144578 -1.711263 -0.432925
-3.713060 -1.563063 2.219554
-3.759028 0.699089 4.675630
-3.265966 -1.734591 -0.413397
-2.407971 1.270920 -3.474468
-3.849069 0.154201 2.199112
-3.860028 -1.892987 -0.401112
-13.353983 -2.622187 -1.441254
-10.910464 0.000592 -3.028556
-13.565686 -2.342743 -1.255615
-3.859427 3.962521 -5.449664
-10.994334 -2.713576 -0.634517
-6.586724 -2.195549 -0.512197
-3.864067 0.237593 0.601380
-4.103595 -3.206318 0.036071
-3.098074 -1.714738 -0.406676
-4.937901 -0.797127 -2.825614
-3.514464 -0.012994 -3.596465
-4.398900 -1.574919 -0.514030
-2.874005 -0.499019 -0.747378
-11.165241 0.071324 -3.212295
-5.009455 1.366476 -2.381889
-4.633324 -4.664946 0.431531
-4.194086 0.880326 4.595843
-5.668715 -0.016577 -0.815694
-6.973526 -2.339920 -0.648780
-6.777209 1.725661 -3.581603
-12.189302 -1.516526 -3.011484
-3.835089 -0.045222 -3.767003
-3.918341 -0.092915 -3.990983
-9.606555 -1.479971 -4.240926
-5.380857 0.048521 0.837245
-6.198968 -1.985660 -0.414005
-4.544300 -1.570756 0.029717
-5.161971 7.417762 -9.678293
-3.760940 -3.325221 -0.003487
-4.717841 -5.067251 0.481235
-7.406450 1.176027 -2.810477
-4.901687 0.364756 0.926872
-6.239559 -0.262748 5.552485
-3.299682 0.039535 -3.361762
-8.044144 -0.246158 -4.288811
-5.981531 -1.628010 -1.201419
-11.501336 0.286301 -3.367507
-6.096622 0.282280 1.363382
-10.261969 -1.929453 -1.582287
-8.814473 -0.065831 -2.378183
-9.391150 -1.416606 -4.087646
-4.004127 -3.902712 0.206998
-17.192711 23.444138 -31.187836
-5.298110 8.190571 -10.681593
-2.366940 1.416147 -3.485463
-8.659599 -0.204004 0.334949
-3.873545 3.895876 -4.287632
-3.935811 0.740046 3.073845
-6.695233 -6.994070 0.859814
-13.061626 -0.533349 1.187356
-4.856741 -5.970926 0.769290
-9.749189 -13.274919 2.830381
-12.800705 -2.232928 -3.911503
-4.952239 0.120947 0.312098
-3.732451 0.794587 3.627942
-14.788116 -3.445496 -1.669183
-8.140118 -0.050658 1.113797
-5.888772 -0.370231 8.425333
-9.991075 0.391521 -3.033061
-17.371490 -4.351713 -2.722090
-6.661720 -0.434838 7.898602
-14.830835 -3.852491 -1.988965
-15.618773 -1.811759 -4.903321
-4.612099 0.332539 0.360849
-8.006074 -12.215266 2.502762
-5.869111 -0.160540 5.243129
-5.077487 -0.832570 -2.796593
-10.147913 -2.051625 -3.989322
-8.301825 -12.900932 2.692388
-8.950550 -0.392413 1.136080
-9.820363 -0.850865 -4.340127
-3.561490 0.216112 1.603508
-9.086215 0.418223 -3.730956
-6.899357 0.670752 6.513535
-15.225714 -1.416828 -3.620080
-11.710643 -0.940990 -0.683923
-17.778511 1.477846 29.379728
-4.538401 1.903714 -2.641573
-4.231940 -0.040985 -3.778007
-4.449221 -1.596748 -0.006808
-4.486586 -1.673448 -0.052757
-19.287643 -2.912009 -4.560485
-4.284382 0.566175 2.408840
-3.591249 3.990788 -5.443379
-3.798812 4.184472 -4.525536
-3.424224 2.932272 -4.134475
-5.531520 10.839314 -10.724459
-11.336292 -1.005813 -1.626687
-14.573612 -2.043380 -3.616819
-7.763565 0.033010 -1.575015
-27.148470 0.864585 30.230326
-9.446198 -0.748664 -1.447284
-9.491310 0.243728 -3.788081
-159.364990 -24.054464 4.997893
-12.722437 -3.196122 -1.675063
-8.244517 -0.087191 1.234170
-8.757827 0.211874 -2.613328
-3.058286 1.587110 -4.561179
-4.371076 0.140331 1.514149
-4.092681 -1.436275 -1.208096
-6.805692 -2.199793 -0.656200
-4.193253 1.834771 -2.615081
-1.941657 1.243779 -3.285116
-1.021294 1.805409 -2.375549
-4.292766 0.738107 3.444370
-7.509039 -8.371281 1.260989
-5.066908 1.489310 -2.483708
-6.171695 -0.513815 -4.085453
-5.277555 1.113335 8.620255
-3.309069 0.705205 2.303696
-3.547781 2.468145 -3.545145
-3.499626 0.722916 2.701138
-6.794370 -1.182539 -0.229347
-4.683894 0.965529 5.902765
-3.386378 0.674903 3.907163
-6.436862 -0.088668 0.687498
-7.346094 -0.077850 0.555028
-8.909084 -10.857995 1.914704
-6.968145 -1.228618 -0.197055
-12.166747 21.557703 -27.949699
-4.353703 5.785859 -7.650220
-9.363982 -1.799581 -3.695724
-4.047791 -4.038459 0.246198
-3.666420 0.033524 3.941850
-4.301514 0.915594 5.069262
-11.391490 -1.120923 -3.711331
-4.449892 0.374889 0.451310
-11.887721 20.973297 -27.184921
-17.381893 3.405455 42.342487
-10.623310 -1.243133 14.365082
-3.692346 0.680111 1.953732
-8.461482 -0.256348 -0.168639
-10.125999 -13.651617 2.901520
-3.139899 0.298534 1.049783
-3.600949 0.238827 1.226586
-7.288328 -0.251281 1.029958
-4.670026 -4.496556 0.369601
-14.289597 -0.120398 -3.796209
-11.776157 0.331161 -3.321986
-7.345548 1.223140 -3.176454
-10.485319 -0.101534 -2.668889
-4.866356 -4.951329 0.496840
-3.625175 0.645098 3.864875
-6.576602 0.861657 10.874246
-17.266554 -3.098054 -5.758478
-14.264783 -21.711199 5.100050
-8.370810 -1.396515 -1.086534
-15.371686 2.047798 -5.519743
-6.727406 -0.138045 -4.017808
-11.884794 0.242911 -3.284644
-4.551994 1.275159 -2.211520
-17.336500 -3.746214 -1.628394
-13.573702 -0.203402 -3.386913
-23.528280 -4.902079 -2.680499
-14.486183 -0.372110 -3.567870
-15.429197 -2.880665 -2.096150
-6.574359 -0.106646 -3.928904
-3.886983 -0.028512 -3.938362
-3.524319 0.162645 2.356086
-10.221734 -0.831746 -4.214015
-6.259128 -4.649460 0.328017
-14.873345 -1.378953 0.213341
-3.910888 -0.082447 -4.048203
-15.738724 -27.310892 6.507270
-4.386804 0.929845 5.891900
-19.513704 -3.980971 -2.330398
-3.198445 0.735679 2.647316
-11.342574 -0.917535 -0.728946
-10.897329 -1.903356 -1.414155
-6.575266 1.297511 11.321448
-8.405013 0.399267 5.357787
-15.538453 1.425699 -5.164117
-19.555553 -3.082891 -2.651308
-3.690667 0.662888 4.251350
-5.168899 1.422727 -2.501878
-19.171253 -3.127045 -2.236833
-5.710668 -0.225217 5.890788
-20.184160 -3.593273 -1.278736
-9.639915 -0.290859 0.372676
-5.872408 0.246882 -1.353206
-5.767651 -3.196112 0.618414
-9.344288 -8.632942 1.289414
-10.987633 0.583656 -3.297935
-4.708590 -0.030288 4.002702
-12.978278 -1.386509 -4.735123
-3.514403 5.294663 -5.385815
-6.689648 1.292467 12.629717
-20.600834 -3.836834 -3.313727
-5.895653 0.735677 7.794245
-4.375278 -1.639943 -0.125984
-20.374016 -3.758516 -3.254670
-8.280458 0.049993 -1.606941
-5.843062 0.638422 4.862889
-8.369079 0.057163 -1.618791
-18.473078 -2.883581 -2.518234
2.144376 2.137977 -2.228956
-2.220918 1.429394 -3.313700
-3.883308 0.012831 -3.484906
-3.066454 0.690461 1.904732
-5.006645 -2.620037 0.392932
-7.685530 -1.048774 15.852417
-15.689017 -1.835503 -4.892678
-5.240419 9.182381 -9.113246
-17.478804 -2.181843 -5.467374
-7.846480 1.812304 17.554768
-6.134025 -5.931554 0.609202
-3.777641 -2.433203 -0.192433
-4.981700 0.676020 5.411000
-17.728573 -2.623606 -4.127527
-3.673006 0.226792 3.512571
-5.081745 -5.442706 0.629428
-7.781656 1.388591 12.264688
-14.657333 -2.656867 -1.400768
-9.272706 -0.428697 1.157512
-3.978596 0.007284 4.052565
-6.305013 -0.746330 12.161830
-20.604311 -3.163584 -4.919272
-17.669840 -3.145731 -2.911277
-2.853341 2.283188 -2.112767
-3.796685 1.536017 -3.211832
-4.182481 2.269236 -2.131550
-6.036969 0.613304 2.108232
-6.831255 -2.735604 -13.486411
-5.951427 0.243893 1.863109
-8.777541 -0.189014 6.608598
-1.168901 -0.673251 -0.325288
-13.160927 -1.103786 -8.588379
-3.424870 1.719401 -3.269099
-2.547441 -1.135895 -7.837444
-1.310416 -0.437064 -1.137806
-6.884923 0.547931 3.613685
-1.453786 0.113083 -0.748277
-1.292186 -0.629232 -0.301662
-1.399169 -0.911330 -0.254991
-1.876061 -0.667170 -0.483304
-3.930308 -0.140739 -3.036360
-9.646349 -0.543822 -3.574242
-8.616667 1.743547 -2.690634
-5.289341 -0.228059 -3.171659
-3.712961 1.668266 -3.202242
-3.638061 -3.603586 0.628575
-8.552459 -4.062489 -2.213803
-5.166069 -2.678556 -1.796793
-5.238436 -3.880737 0.597193
-6.679332 -3.420102 -2.014085
-2.118486 1.375023 -2.631717
-0.443906 1.199108 -2.538264
0.577360 1.267736 -2.125763
-0.059862 0.050840 0.295959
-0.128544 0.036547 0.379633
-1.766970 -0.345139 -5.049555
-0.608029 -0.113179 -1.027928
-0.127938 0.063529 0.355822
0.191673 0.805438 -0.040551
-1.862215 -0.240232 -2.406423
-0.143358 1.416253 -3.150409
-0.234094 0.670565 0.601425
-1.733925 0.217876 -3.300759
-0.391435 0.609368 0.778162
-0.863647 0.523092 -2.994809
-0.269867 0.479010 -2.544517
-0.174796 0.431350 0.485794
-1.049034 -0.594905 -0.655214
-5.322984 1.209659 10.317467
-5.419527 -0.449463 -5.887606
-3.053457 0.216774 2.063267
-5.087738 1.264416 9.927788
-9.437731 -1.798837 -3.674168
-3.931543 1.605544 -2.334260
-5.046618 -0.300122 7.651927
-5.837648 2.086368 -3.137655
-9.214201 -1.214652 -1.747174
-6.357956 -6.585706 1.600860
-5.975151 -6.358352 1.515387
-4.435791 -0.350393 -0.677733
-28.099848 -2.498831 2.756587
-7.332920 -6.618040 1.521642
-8.972488 -0.352230 -0.416871
-7.860497 0.745017 10.238535
-4.508729 0.850221 4.903345
-7.861039 -1.780788 -0.168179
-11.678244 -0.783494 0.729051
-3.161638 -0.985832 -0.612585
-3.553034 0.772527 3.379019
-15.729925 -2.504990 -1.173267
-3.815038 -1.951617 -1.146635
-3.815037 -1.951617 -1.146634
-11.273969 -0.743045 -2.852613
-6.785226 -4.132862 1.005810
-5.951194 -3.075214 -1.904574
-5.839092 -0.672371 1.947840
-5.497910 -2.060036 0.836626
-7.266433 -0.156300 -5.034681
-5.750195 -4.168817 0.627504
-6.799541 -4.276327 0.755984
-5.274828 -3.055561 0.458775
-4.120853 -2.776499 0.362038
-8.413983 -5.890184 1.267453
-7.763606 -4.936181 0.927899
-7.274968 -3.159264 -2.067897
-6.072928 -2.877500 -1.873388
-6.386310 -3.415776 -1.975897
-8.398444 -3.261904 -2.743353
-8.473616 -3.253645 -2.857852
-6.767900 -2.669035 -3.100742
-8.300015 -3.692330 -3.939321
-8.729016 -4.237874 -2.327259
-8.403313 -3.681624 -2.327430
-8.845500 -5.304654 0.689560
-6.142305 -2.431577 0.361352
-6.792423 -4.853247 0.667317
-3.666614 -0.523995 -0.275902
-9.721969 -0.138890 2.747119
0.508142 1.015705 -1.007261
-4.380807 -0.457066 1.440104
-0.720637 0.174363 -0.470944
-3.796404 -0.468804 1.091708
-6.153504 0.627315 2.654633
-0.870203 0.612375 1.090181
-0.894884 1.364383 -1.348848
-2.354562 -0.090439 0.765934
-6.606680 1.651688 -2.342682
-10.649626 -2.173812 3.779134
-6.651770 0.243276 0.997898
-9.395157 0.125898 2.790719
-8.669864 0.076819 1.479117
-12.218280 -3.223724 0.667360
-8.378153 -1.841156 -0.082596
-29.533167 0.418316 31.581711
-12.792500 -0.835260 -0.050308
-7.749393 -1.507440 -0.053046
-5.673442 -2.994590 0.537508
-9.138677 -0.985545 -1.518154
-8.106129 -0.237730 -0.269943
-1.684586 -0.516815 -0.407671
-1.113137 1.873913 -2.228259
-0.627545 0.313991 0.057997
-0.238374 0.406746 -0.109732
-1.779875 -0.991109 -0.639327
-3.772557 0.238227 -3.121135
-1.778736 1.686919 -2.539129
-2.289908 -0.959538 -0.757755
-1.000517 -0.309295 -1.075457
-2.053307 -0.940917 -0.802723
-1.196709 0.575663 1.306295
-2.052383 -0.593017 -2.235028
-3.509609 1.666131 -3.050962
-1.708709 -0.943463 -0.642312
-0.514980 1.903806 -2.139778
-0.982316 -0.649983 -0.751712
-2.019926 -1.114643 -0.637562
-3.067244 -1.659981 -0.064938
-1.093789 -0.987018 -0.154316
-1.596569 -0.636809 -0.878023
-1.054670 1.819350 -2.166802
-3.692042 -0.072142 -2.960891
-0.897460 -0.597963 -0.744733
-0.944133 -0.548729 -0.899951
-0.640445 -0.029821 -1.145381
-2.197086 1.482956 -2.849160
-1.448950 1.543660 -2.969120
-0.902291 -0.406328 -0.561174
-2.395920 -1.089581 -0.623578
-1.373492 -0.554919 -0.744610
-1.774773 -1.126923 -0.231362
-1.138001 -0.351980 -1.095391
-0.422301 0.617847 0.694669
-1.817260 -0.667168 -0.406386
-3.800539 -1.369660 -2.107409
-4.699560 -0.217083 -3.748744
-3.738904 -1.632966 -0.357169
-3.705229 -1.243769 -0.571258
-6.937401 1.789598 -2.921170
-8.467097 3.850156 -3.756106
-8.750557 0.969362 -2.325575
-4.828547 1.435839 -1.966956
-0.619442 0.343037 0.054173
-10.876754 -0.688039 -3.798178
-3.624736 0.676173 1.096445
-4.716569 0.831946 1.957718
-3.500187 0.832188 1.370325
-4.449581 -0.646403 1.769885
-5.367136 -0.968567 2.092063
-3.937453 -1.509258 -0.174424
-4.441925 -1.909266 0.489399
-2.481972 2.241190 -7.103474
-2.937037 0.827578 1.084609
-5.208377 -1.554721 -0.319190
-9.117429 0.677009 4.155616
-23.621002 7.646594 -8.218666
-1.828965 -0.117661 0.645956
-5.435812 -1.784087 0.483203
-11.306592 -2.288092 4.643679
-17.096682 -2.482803 -5.068185
-3.223553 0.056408 -2.121613
-4.050791 -1.794065 0.320230
-3.723759 -1.670707 0.259880
-5.518057 -4.932873 0.990328
-6.309276 -5.907344 1.319149
-2.894095 -0.469721 1.217356
-5.351321 0.304124 2.459482
-3.026109 0.495550 1.261156
-2.684372 -0.148529 0.865634
-5.296599 -0.691186 1.827990
-8.677997 -0.099452 5.239834
-4.987237 -0.706401 1.578377
-3.450695 -0.590680 1.333521
