3.616958 -2.192932 0.159946
7.696002 0.837107 -0.539990
4.330444 1.910009 -1.218703
7.207341 0.747083 -0.814485
4.251173 -3.053392 1.236633
6.318415 -0.506372 -0.257684
12.461740 -10.680743 15.416729
12.632763 -10.845057 15.729151
17.236509 -15.784477 23.721481
5.432775 -1.219110 0.450610
7.783025 -1.704349 1.951056
6.437766 -1.422407 1.142023
7.340280 -0.155134 1.161502
19.619423 -2.428006 9.987142
20.155098 -2.525006 10.402805
7.014111 -0.197438 1.218762
9.376307 -2.190054 2.675022
9.056780 -1.872228 4.186435
23.350422 -8.679624 7.654567
5.787497 -0.638906 -0.171991
7.328904 -1.878722 0.670883
23.180365 -8.598042 7.551431
7.590726 -1.382866 -0.038402
6.660655 -0.756662 -0.705172
6.630677 -0.747508 -0.726565
12.056794 -2.991532 1.371862
15.270168 -3.963179 2.253849
11.728291 -0.352924 0.153165
6.923737 0.098400 -0.315433
8.177076 0.169315 0.189604
9.146770 0.062388 -0.128956
8.488305 -0.854529 -0.039800
7.939439 -0.948833 -0.121377
11.650595 -1.560351 0.318893
11.650362 -1.562637 0.315897
13.853460 -5.445689 1.709090
8.681083 -3.395646 1.135724
7.643612 -2.393907 0.952992
7.309378 -1.125256 0.042453
7.858857 -1.589339 0.191949
7.334064 -2.023061 1.431708
6.367421 -2.669428 1.765825
6.240191 -1.938560 0.786705
38.806824 -31.076786 30.792604
14.079430 -9.054189 16.999723
6.338311 -2.417972 3.315122
7.118345 -2.348033 1.404252
11.715035 -6.454391 5.082381
8.821646 -2.186677 0.903003
13.870398 -4.497701 2.479810
13.109064 -4.155384 2.238031
11.450413 -2.559276 3.066873
11.608932 -2.592509 3.162257
12.161106 -4.460128 3.916439
9.445866 -2.991068 0.577437
15.704246 -6.998171 3.885378
9.686747 -2.917904 1.679255
60.581623 -29.861698 28.851294
18.092636 -7.758870 6.279934
86.309494 -43.526577 42.308964
16.171179 -6.722397 5.297645
8.460888 -2.423708 1.356752
17.105463 -7.252479 5.761929
9.888712 -1.964457 1.381896
10.425548 -3.128289 2.594189
77.587967 -38.773983 37.775089
7.779553 -2.163253 2.229453
10.607578 -3.416945 3.625625
7.757450 -2.379862 2.475340
10.537360 -3.042327 3.629793
7.768323 -2.376068 2.498914
8.395741 -2.218938 2.648626
8.418958 -2.979806 3.080115
14.831282 -7.078458 9.283167
11.991821 -2.471097 1.231310
21.223969 -8.376657 4.616346
16.523533 -25.534298 31.264204
6.404395 -2.578409 2.049783
7.740262 -4.185012 4.251892
10.506772 -15.404190 6.427861
12.370619 -15.886798 7.516604
9.582953 -2.196343 1.209792
8.255177 -2.470878 1.404463
6.763573 -2.764141 2.851388
8.156632 -2.112655 1.912433
8.019752 -2.085332 1.779205
8.137428 -1.711957 1.233672
9.562723 -2.768760 2.641898
8.191522 -1.901781 1.913046
7.871055 -2.678061 2.660042
8.172057 -2.289632 2.662070
8.161064 -2.286845 2.648789
7.516441 -1.981453 1.995358
8.731221 -3.836107 4.890853
8.453512 -2.302817 3.459926
7.827386 -3.502244 3.696716
5.862393 -2.366034 2.653743
6.568485 -4.079369 5.342445
-699789.187500 244496.125000 1471538.000000
-699794.562500 244496.062500 1471548.000000
-699792.875000 244499.781250 1471530.375000
0.281609 -7.449091 34.441734
11.567772 -5.668324 7.719133
7.497113 -2.221009 3.315300
9.023703 -3.537240 5.864731
11.552499 -5.509987 9.611824
6.924773 -1.895281 2.502124
7.577049 -2.023513 3.127336
11.396571 -6.369667 7.241964
8.322895 -2.594872 2.584695
10.073876 -4.167347 5.006688
8.925213 -1.765768 2.394465
8.361362 -1.916380 2.493018
8.112240 -1.939398 2.158761
10.099498 -2.057178 2.653218
18.150366 -5.948272 8.376919
7386.649902 -7089.125977 10432.264648
6.562962 -2.637112 4.394688
6.563711 -2.638776 4.398977
6.309943 -4.386986 6.029714
10.264446 -5.941759 7.721723
50.236603 -63.347164 96.851692
6.056212 -6.309878 12.311750
9.757739 -3.160687 4.197994
9.918896 -3.275117 4.302551
10.957129 -3.046909 4.694166
10.391720 -2.032171 3.846200
8.814708 -1.274339 3.323699
8.778311 -2.636587 4.285411
1.514895 -10.456264 17.430387
7.246767 -5.581218 13.735858
-20.351301 -29.262983 20.757425
14.305522 -7.503321 9.936663
14.703356 -1.262671 6.814122
9.361605 -0.947363 4.353395
8.684324 -0.877277 4.717772
8.439048 -1.069460 5.099483
12.921444 -6.178711 10.633501
12.619004 -5.979144 10.511051
8.300648 -3.875338 7.176641
16.829716 -5.559711 11.932346
9.081289 -2.144713 6.186052
8.688775 -0.738088 4.540514
8.259181 -1.332489 4.996031
8.298910 -1.434839 5.131660
8.010201 -0.997597 4.629647
9.383922 -4.859921 9.462409
8.875884 -1.763851 6.259659
8.422922 -3.154022 5.372114
8.870815 -1.765231 6.250932
18.327263 -2.565933 14.702483
7.682149 -2.870319 5.237358
8.602431 -2.763183 5.465769
7.146785 -2.108993 6.307184
7.141252 -1.850703 5.861753
10.268461 -2.949305 6.899022
9.368176 -2.640230 5.897012
14.889759 -3.322448 6.604331
9.191365 -2.897532 5.829342
9.377522 -2.337890 5.189326
10.784980 -5.084776 7.061576
12.683199 -6.152944 8.971533
8.804383 -1.293226 5.257985
18.668221 -8.294254 13.789501
9.109076 -2.032491 5.191443
24.559349 2.048394 27.108364
16.523392 -1.984335 14.324697
8.763832 -2.212718 5.803935
8.763370 -2.212998 5.802770
10.518719 2.910284 11.687046
8.523849 -5.019865 5.837088
8.334194 -3.887210 6.704631
8.768918 -6.534129 9.116871
7.278870 -1.371444 6.613557
7.185954 -1.433625 6.532272
6.918047 -2.363874 5.774964
11.658998 -0.198695 7.647248
21.975040 -10.626874 20.579544
8.655791 -0.556719 4.114401
9.734996 -1.365988 6.247951
15.338767 2.200471 10.276157
14.332575 -2.072486 10.462244
7.438660 -0.301109 5.112998
9.621068 1.334598 9.129038
8.520514 -1.985338 5.666552
13.442005 -3.256736 11.305916
35.511826 -11.615122 46.451847
10.030428 -3.550272 8.600258
7.620628 -2.174291 6.108003
7.201148 -3.406224 6.454087
8.977047 -2.378831 7.404066
6.479700 -3.564184 6.584980
10.467565 1.719156 10.925720
8.644886 -1.965360 4.951255
10.552651 -2.295406 6.231150
8.118363 -1.952537 4.892430
7.642746 -2.304787 4.852330
11.395736 -1.278153 7.230025
7.686000 -1.985685 5.394056
6.799226 -2.763532 5.400371
7.321820 -1.361516 5.057920
7.266613 -2.605307 5.834608
7.258506 -2.600899 5.823304
6.862920 -3.023818 5.458902
9.158012 -4.618966 7.975852
12.737980 -17.033497 21.566416
7.819400 -3.679089 7.462304
7.660834 -3.044883 6.391248
8.435016 -3.111157 7.734133
8.437623 -3.110754 7.738653
15.876652 -11.015862 20.170839
9.529399 -1.942607 8.254589
9.799900 1.191955 13.465061
17.902679 -0.665141 17.582315
7.929045 -3.711530 8.293558
8.574114 -2.449327 6.443678
6.564633 -2.399143 7.942742
6.465694 -2.602072 7.753016
6.484704 -2.500091 7.926222
6.393880 -2.735831 7.725573
6.538282 -2.434022 7.919137
6.121325 -1.617871 6.124504
7.426187 -4.724371 8.437327
7.178613 -4.001055 6.785921
6.898831 -3.652404 6.370802
7.295065 -4.554618 7.777951
8.343538 -2.271999 6.655798
8.206730 -2.342266 6.223881
7.863678 -2.200696 5.849879
9.060474 -2.527844 7.644700
8.769145 -2.558518 7.008871
8.722095 -3.368655 7.426669
8.508279 -3.105144 7.134676
11.737356 -4.273648 12.216777
7.942753 -3.069254 7.611722
7.876423 -2.985622 7.570267
14.430506 -0.361287 13.688129
14.833364 -0.243252 13.967289
7.527535 -2.142493 6.960065
7.531630 -2.179300 6.970567
7.884728 -2.013267 7.463807
7.161087 -1.576215 8.527771
7.405248 -1.933888 7.435311
9.693310 -1.029053 11.582076
7.891705 -1.674119 8.328815
8.059943 -2.402528 7.283601
12.139739 -4.263339 11.891384
7.965586 -2.357672 7.227443
7.840024 -2.383332 7.390798
11.560373 -4.532084 15.085100
8.385077 -3.459959 8.132919
8.490027 -2.987811 7.623004
8.171668 -3.437154 7.905705
7.778973 -3.321618 7.676135
7.779346 -4.171739 8.917791
8.254269 -4.845827 10.325435
8.278550 -4.874230 10.374616
7.760199 -3.298200 7.867712
8.041025 -3.546997 8.743777
7.643524 -4.157012 8.719840
7.601220 -2.336369 7.577445
8.403467 -1.575028 8.455490
8.404587 -1.572383 8.465696
7.763546 -2.327136 7.700465
7.771716 -1.765387 7.410860
9.449981 -4.015709 12.040604
7.145809 -3.533107 8.212797
27.105389 -14.366934 55.663475
7.278838 -4.154393 9.893937
8.358541 -4.374085 9.700577
10.413720 -9.409374 20.816944
7.596876 -3.729278 9.336572
11.041935 -2.796057 21.978853
6.035542 -3.169725 7.836070
6.447517 -2.788455 8.911818
17.325983 11.409845 40.843056
6.356833 -2.801952 8.910299
10.976241 -3.156716 23.318769
5.956990 -2.673531 8.544982
5.957048 -2.672650 8.546639
6.621320 -3.972829 8.477902
6.510614 -3.431442 8.806021
7.127330 -2.517208 10.467621
6.175500 -2.584723 10.268370
9.233805 -0.145258 17.368803
3.737571 -8.330256 13.382525
7.441144 -5.089750 12.801616
26.882927 -6.049814 52.186764
5.294573 -4.446372 9.629721
7.664466 -2.039971 12.545053
6.068750 -3.137125 11.396424
9.032915 -5.974504 16.146343
8.597109 -3.096996 12.188842
8.598639 -3.096675 12.193809
2.487686 -7.753585 15.702512
1.976467 -10.135714 16.651300
2.059269 -9.945196 16.528328
1.888095 -10.258469 16.784546
-1.122697 -8.877114 15.760408
5.993851 -4.571388 13.602313
5.909333 -4.627635 13.163216
-3.541428 -19.967251 33.764179
3.024573 -8.962656 17.386070
-137.038666 -161.568710 -58.831638
5.826643 -4.829252 13.125227
6.547223 -5.306440 13.249946
6.468877 -5.219723 12.939934
6.323188 -4.925884 13.551947
4.752739 -6.295652 12.440660
6.299298 -4.945074 13.548271
6.244020 -4.935339 13.397675
5.766941 -5.138809 14.354518
5.748343 -4.992716 14.269733
5.655227 -5.027501 13.576441
5.615139 -5.031267 13.428662
3.540418 -5.301234 14.168243
6.105227 -5.242268 13.817884
7.121462 -9.063095 27.976095
6.046101 -5.095974 13.297951
6.454171 -6.565575 18.726955
6.694093 -5.030413 13.702549
6.088483 -5.462750 13.326735
5.721358 -5.453953 13.834170
5.712695 -5.448310 13.826097
5.725585 -5.453467 13.836662
5.296556 -6.432053 16.561012
5.403547 -6.061850 15.324048
5.401879 -5.689485 14.122563
5.233351 -6.657568 17.241449
5.399658 -5.718829 14.239983
5.669178 -4.592534 18.023487
5.657683 -4.606563 17.697187
6.804983 -4.635854 13.740013
2.133062 -4.876779 15.825464
1.172867 -5.983168 13.640612
-2.924557 -4.356774 17.449425
-2.840457 -4.425235 17.336983
-2.795875 -5.610217 14.588181
2.131606 -6.402398 13.446578
2.467555 -5.841903 12.122460
-4.300448 -6.159456 16.977640
-39.992542 -26.451069 18.568083
-13.081874 -9.850971 18.515520
-14.305152 -10.185490 19.012125
-10.694693 -15.820929 18.045399
0.407176 -7.371189 11.800237
0.474391 -7.346345 11.803485
0.263663 -7.372019 11.789991
-30.721945 -21.547401 17.032661
2.216401 -6.235151 12.417169
-2.857934 -5.748249 16.623320
-41.062794 -25.904751 14.922778
-9.771215 -15.791311 17.900646
-10.809575 -16.562391 18.327465
-11.238251 -14.892599 18.410419
0.569051 -7.284647 11.642971
0.636049 -7.259521 11.648024
0.425998 -7.286172 11.627629
2.352426 -6.128550 12.296801
2.660751 -5.644622 12.377501
2.608540 -6.179456 12.656739
-0.538779 -8.158232 13.772908
-10.990669 -12.130699 16.661009
-12.808485 -12.784578 17.005836
1.831053 -6.073184 12.676769
-234.232758 -139.326324 5.982586
-12.766650 -12.272754 13.408445
-16.116861 -13.388960 13.231972
2.369051 -6.017515 11.498610
-1.219506 -7.426655 12.498784
-2.071411 -5.691602 30.429604
-3.121902 -5.789032 32.668888
-5.904660 -10.293533 29.338968
2.459445 -5.672187 11.889595
1.711676 -5.865835 11.475827
2.834329 -5.711796 12.124831
1.707391 -6.473413 12.029286
2.835633 -5.710853 12.124633
1.511283 -5.981542 11.572613
1.579734 -6.073949 11.616101
1.049210 -6.033409 11.856395
1.074270 -6.027721 11.858741
1.688327 -6.070280 11.187490
1.711757 -6.063610 11.195998
-17.956823 -12.994181 12.814068
-6.060117 -8.166445 10.812109
-5.672845 -7.737395 12.898040
-35.590191 -17.360622 7.316202
-46.166759 -20.461502 5.954500
-3.188186 -5.921370 14.445184
-3.821496 -9.426925 14.893604
-29.803032 -23.237730 -1.774506
-39.074268 -27.996149 -5.613123
-3.581718 -6.008233 12.936488
-4.494803 -4.865905 12.327587
-3.930507 -6.491344 12.218367
-3.542894 -6.261912 11.835213
-4.050717 -6.126205 11.354213
-4.055192 -6.098855 11.346586
-4.485274 -6.472341 11.941275
-4.806711 -5.982269 12.648159
-5.038881 -5.931479 11.926609
-3.286602 -6.160253 12.183459
-3.046989 -7.342185 12.617764
-4.865503 -5.970014 12.212032
-4.481458 -7.005113 13.806269
-4.846343 -6.925627 13.626644
-3.816591 -6.258265 11.670666
-695.827087 17.329647 -20.797714
-3.714098 -6.006918 12.263871
-3.714445 -6.006636 12.263802
-5.461029 -5.707584 12.349920
-6.372884 -5.535086 11.868166
-6.328960 -5.756035 11.851501
-5.854409 -5.913401 12.471242
-5.177657 -5.798614 12.620768
-5.006350 -5.853361 11.287451
-4.615193 -6.298113 11.482013
-4.268883 -6.204129 11.356117
-4.269906 -6.204447 11.355874
-4.403118 -6.085266 11.458122
-11.119017 -6.243789 7.870283
-5.558228 -5.529164 11.399221
-5.731180 -5.264915 12.117357
-5.029089 -6.016631 11.839954
-5.183301 -5.596391 11.821483
-6.044706 -5.097753 12.468987
-5.736142 -5.269859 12.310642
-6.331058 -4.979084 12.571324
-6.323842 -4.979476 12.565709
-5.657506 -5.316587 12.211771
-7.450834 -4.777626 12.500512
-5.655521 -5.316288 12.210215
-5.937756 -5.198850 12.277275
-7.415693 -5.793113 12.307363
-7.078430 -5.689313 12.203259
-5.081651 -6.156805 11.920384
-7.421018 -5.776462 12.329729
-6.279205 -5.406124 12.973402
-6.940235 -6.086987 11.887147
-6.699215 -6.084222 11.750611
-6.204989 -5.770689 12.714292
-6.398633 -5.347594 11.607070
-8.467139 -4.696388 11.981195
-6.673811 -5.338129 11.813951
-6.762106 -5.494803 11.947784
-7.208683 -6.628625 13.154790
-6.534499 -6.673620 13.042645
-6.703330 -6.700291 13.075748
-5.391938 -6.164000 12.603996
-6.336110 -6.206248 12.828171
-5.284055 -6.124902 12.558091
-7.253225 -5.886744 12.412176
-7.545077 -6.438479 13.777083
-11.285963 -7.325730 11.258531
-11.115419 -7.686277 12.064867
-8.646859 -7.304504 13.003654
-7.569218 -6.563017 12.820635
-8.221479 -6.030793 13.395770
-8.675007 -6.323667 12.271861
-9.062883 -5.326495 12.165451
-7.528631 -6.069593 12.614735
-6.458766 -6.234406 12.060786
-8.523057 -5.964644 12.937811
-6.510484 -6.626882 12.534849
-4.648987 -4.707608 8.983954
-9.006706 -6.168508 14.133574
-7.305025 -6.383532 12.999064
-9.078136 -6.431243 14.185088
-9.163034 -6.074997 14.596409
-9.183944 -6.085706 14.619653
-10.310073 -6.678399 14.629949
-5.438785 -8.964283 12.406497
-14.352200 -5.783652 20.442415
-2.734847 -15.128111 -8.985328
-9.269718 -7.051058 16.886452
-9.429391 -6.992696 16.874735
-9.272898 -7.051864 16.889181
-9.260163 -7.051343 16.881815
-9.783979 -7.107866 16.759420
-11.892008 -7.499623 15.158147
-9.191884 -6.202359 14.424654
-11.179178 -6.925152 16.234652
-9.728485 -6.820877 13.948988
-4.877716 -11.028584 -2.490917
-5.022189 -22.205601 -25.441940
-0.210314 -17.130754 -17.209789
-6.900229 -10.126012 4.423255
-11.644049 -7.006547 14.204546
-11.722743 -7.523314 13.329535
-17.050558 -6.909202 16.262041
-12.497968 -7.493597 15.715055
-20.225868 -13.945213 16.979500
-14.380693 -6.201779 17.920233
-18.434206 -6.909373 20.444633
-19.620846 -13.965445 14.951643
-12.483089 -6.792504 15.034811
-13.101705 -6.679689 15.538050
-23.621365 -16.539400 14.498815
-24.164932 -16.929544 14.501696
-17.839851 -17.621645 13.221362
-19.289476 -19.530445 12.976917
-16.139599 -15.051134 13.312607
-15.447884 -14.928913 10.765546
-11.607101 -15.320370 0.946795
-16.640953 -17.014683 9.823899
-12.883711 -9.103205 13.688810
-12.772402 -8.609883 14.211033
-9.603174 -17.730942 1.884237
-12.912457 -8.999016 13.659616
-9.538186 -48.309952 -2.015908
-13.873493 -11.261061 13.825511
-11.950178 -7.903733 15.229957
-16.610586 -7.765438 16.060934
-16.420469 -8.383451 14.674903
-20.157726 -9.233416 15.474236
-16.836069 -7.368904 14.080821
-16.836046 -7.372569 14.081770
-17.346485 -7.259267 14.721334
-19.492430 -30.807133 -45.514519
-15.875982 -8.592073 12.457594
-14.999412 -8.554281 13.139623
-15.575279 -8.281135 13.476521
-14.336896 -9.050522 10.531178
-16.653656 -7.874301 15.213079
-14.509245 -8.807471 10.507543
-16.524107 -7.773330 16.165703
-16.498749 -8.112809 15.676406
-18.882393 -6.935994 15.770705
-26.611485 -8.655210 11.947416
-19.184772 -7.803654 13.084267
-37.216942 -13.671972 -39.790379
-44.514828 -10.174900 9.505177
-18.820341 -7.174802 12.629219
-22.358006 -8.503566 7.484896
-20.403385 -7.544848 16.439238
-19.011440 -8.243503 16.030884
-20.639658 -8.800597 15.404297
-33.449535 -13.054210 8.220648
-21.611124 -9.202698 12.896100
-18.853243 -8.187489 14.966964
-85.993591 -28.102417 10.815685
-19.404430 -8.553745 13.668982
-20.477787 -8.596887 14.992859
-20.022930 -7.811049 14.631425
-38.401497 -15.017593 -15.864142
-20.512632 -9.236902 15.350363
-27.985590 -12.140373 15.318916
-19.405663 -8.535623 12.866850
-22.103693 -9.305042 17.165907
-11.887092 -7.870505 6.654341
-39.000992 -10.163311 13.406451
-22.518986 -8.163735 14.501373
-101.837616 -24.194340 35.528061
-26.859516 -8.568151 16.205086
-27.355944 -8.378133 16.177116
-27.741018 -7.573686 16.856865
-18.657518 -8.476357 8.229697
-24.361824 -8.970267 15.036488
-22.492825 -8.041031 14.630329
-23.022701 -8.442255 14.308484
-23.369328 -9.013457 13.797489
-22.645842 -8.013109 14.236328
-22.102484 -8.219533 14.692192
-22.417049 -8.224008 14.446787
-20.940498 -9.014153 13.079633
-20.344755 -9.239891 10.514582
-47.921188 -7.989478 16.730145
-24.407127 -9.197501 14.647326
-24.157471 -8.395039 16.459307
-23.435244 -8.692792 15.207838
-21.212652 -8.811981 12.588623
-26.621288 -7.889190 13.223936
-32.584435 -12.452752 11.346094
-32.455940 -12.418409 11.420300
-26.302567 -6.532732 12.113621
-32.335484 -4.376029 12.299162
-29.905962 -3.349167 11.836672
-32.826714 -1.217118 13.144237
-25.733545 -7.259694 10.555026
-27.476906 -6.900600 8.363895
-27.466612 -6.893319 8.362965
-48.613686 17.206875 5.851112
-49.978455 12.114228 11.771534
-26.682735 -4.332947 9.629713
-32.284073 -7.507859 -1.232823
-28.191448 -6.199212 9.431189
-29.666964 -2.326971 8.622275
-26.279139 -5.990749 8.697690
-43.686020 5.443342 -1.456918
-27.852098 -4.245352 9.214806
-26.493202 -4.614891 8.665356
-26.687424 -3.520309 10.831982
-25.965088 -5.011876 11.001791
-26.020926 -4.016865 10.509739
-26.633255 -3.459878 10.655510
-25.841276 -4.105289 10.552017
-29.235359 -2.313745 11.933095
-43.534100 3.932288 7.228939
-25.981939 -5.313600 11.352122
-73.977150 78.535927 -6.563277
-25.684259 -5.415532 10.833424
-34.223564 -2.129838 6.311720
-27.123047 -5.923398 8.717058
-25.176462 -7.114637 6.960062
-28.033476 -6.753753 12.792764
-40.783318 -16.661491 11.858288
-40.784893 -16.658161 11.848166
-25.127441 -5.989303 11.007140
-41.013870 7.395794 12.708862
-27.328133 -3.779027 9.276981
-293077.531250 107194.070312 45711.679688
-33.901966 -4.671584 13.609710
-28.788387 -3.573986 11.021175
-26.929409 -5.888764 9.179549
-27.812309 -2.052066 7.734446
-33.926186 -2.142483 5.461143
-27.152330 -4.748970 12.242466
-26.438210 -5.481881 10.852850
-25.693508 -5.858216 11.201609
-70.724586 21.281355 27.429688
-70.748383 21.274563 27.432035
-28.454874 -5.561709 8.356676
-1.448776 -19.064898 12.697543
-2.929104 -18.940018 13.671236
-25.001654 -4.752664 10.013568
-30.231449 -6.719721 14.513632
-25.542351 -6.477661 14.085629
-26.696648 -5.525158 12.987930
-26.715130 -5.499063 12.925165
-26.566870 -5.074501 12.005486
-25.564165 -5.782393 10.210045
-24.964363 -2.421364 8.523858
-24.354536 -2.028934 6.395367
-25.812496 -1.478697 6.064594
-28.223106 -4.530781 8.949909
-28.877342 -6.628343 6.630794
-24.652365 -1.299308 6.939545
-28.988619 -5.354697 8.329828
-29.002359 -5.348772 8.328138
-28.810822 -6.946646 7.991648
-27.423752 -5.659910 8.146415
-12.560065 -2.838172 6.551046
-29.258303 14.329143 26.214291
-28.861433 13.791656 26.048210
-17.070227 5.571468 12.192819
-31.049158 4.191220 12.647424
-30.412439 2.449449 1.123552
-16.275841 -1.426304 10.064641
-15.171164 -4.428382 10.144760
-27.807941 -1.598480 6.264236
-27.130205 -1.596141 7.014650
-25.767126 -4.268428 6.039472
-28.849285 -4.251431 7.403865
-25.776436 -4.966694 6.311116
-31.451550 -3.855991 7.619836
-27.059130 -5.085335 6.086868
-43.616844 11.247540 11.700006
-28.818968 -3.095362 5.924913
-28.752014 -3.460022 5.572660
-26.777002 -3.884878 7.663023
-27.631029 -3.258948 7.724064
-26.271614 -2.823491 8.083142
-26.012360 -4.696418 7.453458
-26.297293 -2.864664 8.496055
-26.295748 -2.867561 8.496660
-25.652136 -5.316437 8.224778
-27.292452 -1.443101 8.213658
-26.389400 -2.761091 8.441443
-26.904552 -4.222649 9.040380
-28.119326 -3.034204 8.791824
-16.387323 2.124400 3.366844
-14.433513 -5.048531 4.076935
-16.577269 0.754090 4.900037
-25.935081 -2.978977 9.125277
-26.917021 -1.518437 8.837111
-25.983997 -2.898538 9.034524
-25.984526 -2.899035 9.034942
-28.597309 -1.464565 9.577215
-18.335754 -81.319725 -43.522064
-26.220886 -0.598179 7.385788
-28.158794 -2.911125 7.324457
-24.899681 -4.173616 6.643993
-25.697464 -1.775691 5.497542
-26.092037 -0.660018 5.241248
-24.465122 -3.965916 4.967906
-26.024899 -2.753770 3.679764
-26.026031 -2.754846 3.679502
-25.550959 -3.166385 5.531810
-28.859396 -7.066884 0.132961
-29.717718 -3.293173 3.720069
-28.914627 -3.401603 4.449957
-39.383862 11.463059 2.718811
-2.657427 -6.590480 11.009210
-1.620374 -9.893371 11.045187
-3.731239 -7.244130 10.136742
-2.786681 -9.297063 10.868326
-1.621085 -9.892547 11.042878
-25.462238 -0.027808 10.370121
-29.927435 7.710997 1.920682
-5.448484 16.560417 43.045334
-25.622414 22.923058 -15.278515
-27.167273 38.178387 -19.780521
-25.768028 -2.526442 5.826205
-21.369539 -9.493394 3.180141
-24.744663 -4.151735 4.137080
-24.805716 -3.819892 5.413056
-35.595535 33.812092 -13.869723
-24.057659 -3.418443 3.016799
-28.653507 -0.491670 2.748144
-26.219002 -3.944607 4.835752
-26.789890 -4.550622 4.762382
-28.469303 -1.882325 4.813119
-89.742241 11.961842 -64.668564
-30.344072 -3.234221 0.174514
-15.715561 -10.804566 -0.593663
-12.151359 -9.886894 4.264004
-29.455111 -3.146469 3.997093
-44.659100 -2.322544 6.638506
-29.622780 -3.341685 5.372499
-26.823738 -4.772567 4.705359
-27.323458 -2.581205 4.294019
-27.630268 -4.140861 3.189880
-31.424654 0.497341 -8.209633
-26.024326 -1.763371 2.891551
-25.612617 -3.464963 2.959459
-25.426250 -3.581006 5.112110
-26.288980 -2.819117 3.356284
-28.501490 -3.606464 2.704528
-64.308952 16.598530 54.372047
-64.301140 16.578354 54.439064
-25.669804 -3.222908 2.172117
-25.393419 -7.785593 4.268728
-24.881645 -1.034592 2.738593
-20.507896 9.474985 -7.872145
-22.728237 -3.164515 0.064883
-22.690456 -3.069128 -0.674529
-22.699495 -3.092412 -0.419955
-24.008448 -2.479503 1.692928
-24.011063 -2.484138 1.699444
-24.016651 -2.505038 1.762897
-25.524874 -2.132484 1.329747
-25.570173 -2.292324 1.692053
-25.381783 -2.817961 2.259780
-21.948980 -7.734159 -11.434258
-23.965574 -13.779663 -11.907919
-21.884518 -7.495990 -11.591242
-21.877045 -7.458683 -11.642803
-22.008883 -7.747880 -11.341739
-36.648911 -4.591590 3.187391
-36.630219 -4.970180 3.293271
-23.985550 -1.292874 1.422407
-23.957432 -1.225676 1.338952
-23.902575 -1.106968 1.203186
-23.972816 -1.258749 1.376577
-23.986931 -1.296575 1.427378
-23.717533 -0.683049 0.694437
-24.844536 -1.995051 1.301440
-39.022190 -1.721754 -1.291025
-38.886185 -1.690848 -1.479343
-24.166883 -1.223617 0.655102
-23.962336 -2.026129 1.173037
-23.656162 -1.230328 0.888837
-23.652306 -1.224719 0.881630
-23.773022 -1.405418 1.128327
-23.848019 -1.247344 0.397259
-23.934763 -1.492141 0.711772
-23.954956 -1.140722 0.401685
-23.827835 -1.234589 0.372823
-24.044552 -1.216631 0.582387
-23.882168 -0.868363 0.073571
-22.909935 1.023520 -2.033299
-23.848846 -1.651229 1.044180
-23.750021 -1.705001 0.998218
-23.748152 -1.527936 0.852277
15.669826 -55.624794 62.888702
-23.619242 -1.165958 0.165671
-23.016090 -1.888122 1.900331
-22.684006 -1.499808 1.509201
-22.478270 -1.591861 1.457885
-21.238760 -0.095331 -1.660341
-22.851599 -1.758107 0.816024
-23.525387 -1.383779 0.599418
-23.137085 -0.981364 -0.085431
-23.297876 -1.148619 0.192442
-23.130276 -0.973917 -0.093484
-23.355335 -7.484742 2.259465
-23.365334 -1.348397 0.418797
-22.690781 -2.151786 2.771523
-23.136122 -1.019047 0.777896
-22.722137 -0.494381 0.223669
-23.035297 -0.397166 -0.284926
-23.073383 -0.526414 -0.157465
-23.041815 -0.335293 -0.323048
-23.546686 -1.205963 0.810842
-23.091431 -0.971996 1.084130
-23.170967 -0.142788 1.151366
-23.302486 -1.225937 1.348782
-23.066553 -0.940255 1.046642
-23.743059 -1.073660 0.494510
-23.597164 0.640580 -0.764374
-23.761328 -1.040240 0.497590
-23.766649 -0.250429 0.002613
-23.735750 -0.987020 0.432902
-22.109043 -1.185505 0.945829
-22.144968 -1.209198 0.971644
-20.898987 -3.261108 3.192037
-18.486549 -3.943108 2.978987
-22.502697 -1.443144 1.243238
-22.608120 -1.502120 1.317751
-22.585476 -2.088382 1.422646
-22.013943 -1.407803 0.596683
-22.470345 -1.630762 0.969592
-22.886932 -2.211915 1.641704
-22.514265 -1.651375 1.006608
-22.350368 -1.572625 0.871005
-22.298939 -1.548421 0.827716
-22.342102 -1.389111 0.687613
-22.416107 -1.430004 0.754709
-23.886765 -4.150655 0.651135
-22.669720 -1.910921 1.398973
-23.021236 -1.134733 -0.050817
-23.700232 -1.430777 0.706114
-23.725601 -1.436482 0.728525
-23.707375 -4.322474 -4.019099
-22.986376 -1.105702 -0.103839
-22.940123 -1.167328 -0.071095
-23.293877 -1.425657 0.418202
-23.018192 -1.127999 -0.042844
-22.865051 -1.740314 1.271501
-22.579845 -1.895818 1.219502
-22.367352 -1.008813 0.534788
-23.343660 -1.577258 1.408078
-23.074860 -1.363579 1.127483
-22.368130 -1.008961 0.536845
-22.448868 -1.084330 0.628612
-22.241308 -1.581002 1.390171
-22.353870 -1.636537 1.451965
-22.285770 -1.603109 1.414228
-19.765270 -3.944966 2.499173
-17.763514 -4.451332 2.417217
-21.693361 -0.299002 0.737443
-22.525372 -1.085530 0.710280
-22.427034 -1.166229 0.706286
-22.663006 -1.318848 0.929779
-22.103323 -0.848463 0.335066
-20.774265 0.669730 -1.195084
-22.783543 -1.639546 1.184302
-21.938759 -0.224770 -0.145578
-21.792509 -0.873244 0.211284
-23.294243 -0.113609 1.285299
-23.265850 -0.096934 1.259251
-23.423698 -0.485250 1.477372
-23.359959 -0.552878 1.436149
-23.168566 -0.049118 1.170959
-22.723789 -1.538755 1.249281
-23.151432 -1.183854 0.528033
-22.912659 -0.262226 -0.150348
-22.820551 -0.230316 -0.243532
-22.666248 0.620047 -0.828276
-23.230465 -1.439990 0.715572
-23.220701 -1.431845 0.703459
-21.079346 -4.244574 1.227565
-24.796110 -2.526063 0.350922
-22.755421 -0.252042 0.501653
-22.737617 -0.357923 0.517874
-22.998478 -0.719370 0.842009
-22.592720 -0.546127 0.429792
-21.257225 -2.228782 2.525117
-21.342077 -1.673905 2.120524
-21.346403 -1.675825 2.121844
-21.341772 -1.674435 2.119952
-21.377438 -2.306532 2.592756
-21.609230 -2.471073 3.284626
-20.848400 -2.256023 3.132276
-21.499069 -2.713959 3.554528
-21.442543 -2.464570 3.430496
-21.729118 -2.602711 3.546574
-21.213423 -2.238598 3.240073
-21.248705 -2.243348 3.246283
-2.739351 2.811667 -3.226796
-21.984510 -2.551567 3.459000
-21.524038 -2.324985 3.265928
-21.222660 -2.453410 3.352772
-21.441916 -1.868659 2.138362
-22.530596 -2.173002 2.493991
-21.282015 -1.684849 1.982198
-21.324841 -1.698203 1.996992
-21.330681 -1.833138 2.110375
-21.398829 -1.321123 1.934244
-20.687756 -1.064778 1.593129
-25.706596 -19.000555 3.872687
-20.936607 -1.569927 2.130595
-21.740259 -2.280411 2.537500
-21.546839 -1.559478 1.754352
-21.533096 -1.643677 1.804060
-21.325748 -1.574144 1.727203
-22.312969 -2.195048 2.258744
-22.134983 -1.975495 2.097349
-22.050009 -2.140218 2.186312
-21.950506 -1.662386 1.952381
-21.683376 -1.439284 1.815370
-21.874952 -1.634516 1.923048
-21.626034 -1.418067 1.785336
-21.734146 -1.947899 1.991809
-21.759075 -1.952324 2.003499
-21.950050 -1.894301 2.034178
-21.452723 -0.614426 1.587202
-21.380102 -1.740773 2.495500
-21.541010 -1.963921 2.610824
-21.337353 -1.876722 2.556417
-21.690201 -1.933146 2.609656
-21.423561 -1.908709 2.572876
-20.437172 -0.984518 2.166178
-20.875048 -1.863589 2.517843
-22.369217 -1.296242 1.191526
-22.781565 -1.063049 1.357966
-21.893419 -1.499960 1.577888
-21.700697 -1.234389 1.425647
-22.110069 -1.889774 1.742717
-21.936329 -1.551653 1.599993
-20.981400 0.585246 0.933959
-22.684122 -1.389663 1.810584
-21.556356 -2.247454 2.904767
-21.909750 -2.330813 2.627686
-21.942049 -2.333781 2.632560
-22.208513 -2.251996 2.721426
-21.470081 -2.246739 3.015684
-21.785196 -2.108341 2.934939
-21.773098 -2.111093 2.934662
-20.138811 -1.037520 2.281744
-21.761692 -2.223257 2.784397
-21.819630 -2.351342 2.840162
-20.950266 -1.118964 2.374843
-21.817595 -2.350910 2.840308
-21.619055 -1.584213 1.938091
-21.863281 -1.669078 2.003290
-21.863281 -1.669078 2.003291
-21.852495 -1.704053 2.011703
-21.897501 -1.680827 2.012697
-19.166380 -0.074198 0.816746
-21.437813 -1.751740 1.955775
-21.676619 -1.828673 2.078887
-21.866629 -1.877395 2.123526
-21.924564 -1.723345 2.081523
-21.786951 -1.683196 2.049244
-21.885548 -2.036405 2.181509
-21.435329 -1.742072 2.019296
-21.875681 -1.670195 2.056645
-21.711956 -1.797136 2.080664
-21.435329 -1.742072 2.019296
-21.918859 -2.044783 2.219041
-20.757721 -1.288925 1.790484
-20.814362 -1.308071 1.804979
-20.596157 -1.237662 1.741958
-21.966745 -1.348390 1.485944
-22.168827 -0.278430 1.329595
-21.824963 -0.954643 1.036761
-21.763052 -0.895011 0.997551
-22.221762 -1.602618 1.476573
-21.971745 -1.408194 1.352021
-21.593241 -2.375525 3.617348
-21.559196 -2.353077 3.606458
-20.802610 -2.274120 3.713056
-21.907087 -2.711046 3.683552
-21.614893 -2.453732 3.589723
-21.287130 -2.438042 3.642639
-21.948092 -2.709605 3.674618
-22.967293 -2.929711 3.609934
-21.473213 -2.152463 3.205520
-20.741104 -2.123590 3.300000
-20.736992 -2.121291 3.304684
-21.428095 -2.157099 3.212700
-20.715021 -2.118882 3.303506
-20.742910 -2.123705 3.300017
-20.907116 -2.145520 3.287505
-20.873972 -2.140672 3.290583
-21.202145 -2.145012 3.244537
-21.140308 -2.285806 3.139746
-21.419443 -2.123695 2.990239
-21.018059 -2.293550 3.170408
-22.920214 -3.516234 4.035807
-21.347918 -1.789044 2.390435
-21.830790 -2.115832 2.512047
-20.771229 -1.458504 1.953990
-21.841978 -1.883285 2.143016
-21.352976 -1.952372 2.527341
-21.023254 -0.350860 1.263417
-21.672398 -0.684189 1.574203
-21.492409 -1.234574 1.460476
-21.922411 -1.218182 1.531402
-21.797310 -1.168206 1.498557
-22.399483 -2.299399 1.915132
-21.244627 -1.341238 1.449263
-21.247728 -1.145121 1.389871
-21.880777 -1.209241 1.524628
-21.382360 -1.248361 1.444431
-21.426954 -1.456362 1.648401
-20.988724 -1.046339 1.448693
-21.421566 -1.939474 1.944589
-20.716190 -1.495114 1.688133
-21.513597 -1.554184 1.721349
-21.453125 -1.809526 1.882413
-20.917990 -1.709702 1.826784
-21.370493 -1.800704 1.872427
-20.699827 -1.807052 2.472998
-20.793032 -1.751683 2.417192
-21.137842 -1.860634 2.441489
-21.072533 -1.283713 1.703016
-21.240595 -1.547619 1.784933
-21.217211 -1.680012 1.821921
-21.108515 -1.361099 1.721706
-21.003357 -1.330799 1.706599
-20.672367 -1.277054 1.688326
-20.886017 -1.293672 1.693721
-21.090967 -1.318126 1.707136
-21.156227 -1.374372 1.724984
-20.986170 -1.411115 1.734346
-20.676264 -1.148308 1.638856
-21.282347 -1.192083 1.647119
-21.441208 -1.702674 1.834343
-20.718290 -1.148122 1.636315
-21.101046 -0.751684 0.807855
-21.250938 -0.695272 0.838695
-21.212355 -0.737708 0.838972
-21.103363 -0.671451 0.795210
-21.101658 -0.676218 0.795603
-20.955418 -0.651449 0.752199
-20.978142 -0.483957 0.721393
-21.274426 -0.840968 0.871496
-20.960566 -0.473117 0.714982
-21.180962 -0.814803 0.841712
-20.802813 -0.374524 0.656456
-21.070993 -1.102901 1.023824
-21.276560 -0.601979 0.944399
-21.047153 -0.448360 0.858484
-20.785967 -0.657465 0.872979
-21.018881 -0.775544 0.951005
-20.496330 -0.629212 0.907091
-20.542850 -0.649616 0.923695
-20.709318 -0.724380 0.976519
-20.706707 -0.723478 0.974674
-21.195358 -1.064796 1.134322
-21.357563 -1.335101 1.212092
-20.682446 -0.880318 1.063584
-21.313618 -1.271110 1.249289
-21.154085 -1.105988 1.190293
-20.865673 -1.161202 1.151027
-20.796385 -0.443526 1.308678
-20.775316 -0.431979 1.301777
-20.789154 -0.967818 1.257147
-22.646200 -0.530030 0.689464
-22.479568 -0.436950 0.540985
-22.789999 -0.847499 0.917681
-22.349136 -0.365195 0.425105
-18.830765 2.412606 -3.081641
-19.889978 2.053618 -1.085204
-23.504221 -1.765349 -0.409279
75.450150 213.827682 -1.233911
75.607056 213.892456 -1.398667
75.593475 213.886612 -1.385031
75.704010 213.845901 -1.390559
75.183052 213.476593 -0.787672
75.185493 213.468231 -0.780499
-23.530190 -2.127041 1.203956
-22.249487 -2.141456 0.781789
-22.419741 -2.108321 0.821897
-22.490433 -2.093135 0.840538
-82.689095 -38.550068 23.804052
-82.814293 -38.527271 23.839037
-83.395805 -38.533394 24.028255
-81.643150 -37.452442 23.459740
-22.499866 -1.970343 0.127310
-22.955944 -1.980387 0.266179
-23.382322 -2.033508 0.384671
-14.748461 2.681163 0.430566
-20.821140 -0.588742 1.180222
-20.699001 -0.974452 1.280599
-21.189232 -9.334335 9.730053
-21.436691 -9.506861 9.903097
-20.979340 -9.709198 9.862154
-20.981462 -9.574127 9.782676
-21.004166 -9.582248 9.794110
-25.930304 -4.921335 -9.003160
-26.106714 -4.971738 -8.968307
-21.267122 2.463704 0.569432
-20.896347 -0.578306 0.490491
-20.079525 -0.657718 0.277806
-21.205143 0.122837 0.626237
-20.080097 0.968107 0.055220
-20.491270 0.047132 0.223001
-20.120712 0.169305 0.057830
-19.964506 -0.471603 -0.199784
-19.967566 -0.472952 -0.198303
-20.703888 -1.131490 -0.219993
-23.659729 -1.493446 0.371523
59.471142 -1.256463 -19.664589
60.070583 -0.071683 -20.615318
-17.844616 -0.933881 5.527888
-20.869707 0.219576 0.578537
-21.060728 0.003746 0.605654
-19.842514 -1.000328 -0.857274
-19.595610 -0.287327 -1.526003
-19.750938 -0.404945 -1.284352
-20.570526 0.704464 0.930947
-20.344736 0.937005 0.843031
-21.208696 -0.074830 0.981221
-20.308367 0.975225 0.827802
54.716141 90.803947 -40.826820
-10.203605 14.237575 0.750453
-19.766169 1.276956 1.106777
67.074867 -56.690170 101.622040
67.048981 -56.199093 101.626167
67.112419 -56.035740 101.522644
67.147041 -58.342285 101.792610
66.891624 -56.627300 101.855133
66.925743 -56.546993 101.805328
-19.496931 1.136902 2.555554
-12.250723 13.078876 1.962545
-19.491365 1.095306 2.551565
-11.826548 -3.513921 0.790963
-16.733376 5.081297 1.269547
-19.722370 -0.405508 0.090207
-18.972683 0.529370 -0.181840
-19.083231 0.405054 -0.121770
-19.001919 0.496489 -0.165956
-18.940689 0.699975 -0.255217
-20.429251 0.557246 -0.252251
-20.238415 0.709174 -0.407010
-20.782820 0.129435 -1.897889
154.182999 -120.064804 127.154884
154.190826 -120.048820 127.137764
-17.852148 2.538670 1.449066
-17.856249 2.534751 1.446800
126.439323 -85.344429 116.685425
-16.238983 2.457514 -2.850864
-15.394644 7.551049 1.580805
-15.578367 7.163683 1.508859
-18.845539 5.150475 3.485652
-19.180780 -0.686047 2.707458
-17.684649 0.712677 0.479379
-16.845020 1.455359 0.673621
-16.840910 1.461277 0.670051
-15.920030 4.153147 -0.221373
-16.528185 5.986119 3.167730
-15.387804 3.706553 -0.504427
-15.113349 3.626575 -0.426767
-17.094154 -0.558424 0.263072
-16.393532 1.562349 0.734346
-17.715357 -0.185792 0.378252
-13.828653 5.793737 2.770138
-17.575089 -1.131943 0.394412
-15.284094 2.560871 -1.005298
-16.624966 0.322742 0.605904
-13.854826 4.801916 1.440153
-16.534578 0.108375 -0.078096
-15.650354 0.702410 -0.861786
-15.332047 -1.826340 0.855959
-10.084982 5.934429 -2.352918
-10.022731 5.999619 -2.401438
-14.694709 5.882132 -2.090885
-14.691755 5.893673 -2.094183
-15.364691 1.955837 -0.577088
-14.812920 1.310111 2.064810
-14.659739 4.405729 -1.469747
-15.261807 -0.461340 0.715956
-16.774597 -1.599473 0.533839
-18.555481 0.653765 -0.228222
-15.234795 2.728648 -1.498577
-18.523455 0.853911 0.472082
-15.555458 3.932745 -0.469804
-18.156878 0.171557 0.454743
-18.155685 0.173633 0.453972
-15.801257 -7.101501 -1.762251
-16.383514 2.079962 2.273777
-15.404034 1.868309 1.129314
-12.480115 5.730622 4.957854
-10.145483 -5.921770 -3.953678
-17.020952 0.425365 5.352958
-14.438820 3.194025 2.671672
-11.776003 2.169026 1.312829
-8.391689 0.791648 0.465757
-16.642096 -1.793193 0.229378
-12.084392 0.415736 1.167574
-15.976528 0.752558 2.535620
-16.470791 -1.375762 0.597232
-15.857527 0.046724 1.108171
-15.089250 -8.388259 0.887599
-12.885682 4.049343 4.132742
-14.770958 -11.108384 0.790636
-13.159500 0.572253 3.131030
-12.462543 5.103794 4.846112
-13.460241 4.067310 4.194711
-17.965797 -0.413168 0.569937
-14.700787 1.724343 -1.953245
-13.569881 1.041804 2.565921
-13.578213 1.037557 2.558558
-13.550977 1.059350 2.611028
-13.549575 1.051982 2.582271
-13.562871 1.052101 2.590320
-13.523056 1.062082 2.575158
-7.728557 1.372994 -3.074552
-14.918672 1.825172 1.504708
-14.040291 4.269083 3.317255
-16.366999 0.753028 -0.033670
-13.518469 -0.080929 1.768730
-5.226163 6.035432 5.017548
-12.979942 1.209191 2.321334
-5.406012 5.922815 4.919750
-12.921895 0.087540 2.213789
-8.088025 3.352160 -0.414381
-8.631919 2.363734 -0.298770
-8.429519 2.365854 -0.206135
8.481137 0.757123 5.266561
-12.911369 -0.237402 3.088785
-12.193720 3.574061 4.511895
-12.085638 3.670564 4.677626
-12.854778 -0.099862 2.298853
-13.024689 -0.448294 -0.119600
-12.745224 1.331288 0.043321
-6.099085 8.088344 7.405529
-24.556282 8.053177 14.426672
-24.496107 8.052752 14.439895
-24.745710 7.946806 14.307595
-12.974019 -0.301159 2.323992
-10.608208 -0.853232 -2.315592
-11.598742 1.782124 2.916327
-10.844862 1.323635 3.369257
-11.825560 0.266230 2.095847
-4.997394 2.626908 5.503245
-11.658865 0.289733 2.141365
-11.072854 0.306564 2.449943
-11.721333 0.113394 2.101964
-11.879495 0.049784 1.982862
-11.067085 0.306460 2.449157
-11.015300 0.612381 2.503712
-9.342991 1.544663 3.533271
-14.775642 -1.288399 -1.902202
-14.500994 -1.385247 -1.694217
-14.343217 -1.438919 -1.551305
-14.375633 -1.304356 -1.625123
-14.334865 -1.442888 -1.557433
-14.371254 -1.305990 -1.624923
-12.727818 0.140877 1.665998
-12.008553 0.336337 2.022582
-11.913905 0.585889 2.077862
-11.886283 0.326345 2.082251
-12.691511 0.180953 2.035135
-11.561239 0.114665 2.705429
-11.502231 0.105763 2.732696
-12.148694 0.323006 2.342825
-10.004056 -0.752485 3.881854
-9.204426 -0.944782 4.623745
-11.636452 0.608904 1.672521
-10.436965 0.778331 2.085312
-14.057168 -0.791301 3.018871
-14.069503 -0.772715 2.964078
-13.656195 -0.809625 3.636076
-13.612135 -1.805824 2.655518
5.144685 0.314302 18.038082
-12.089813 -1.425697 3.567429
-13.439048 -0.453281 1.601500
-12.623356 -1.098738 2.801694
0.759006 -12.345508 10.474033
-0.059535 -12.119281 9.377779
0.308522 -12.644619 10.155640
-11.800197 -0.067899 3.053323
-12.515656 -0.294838 2.384767
-12.637925 -0.052403 2.229842
-11.932115 -0.410353 2.965243
-4.652851 -26.437944 147.478455
28.451916 -45.883781 -24.801979
28.081015 -45.827118 -25.150854
28.937454 -46.662937 -28.541332
32.088779 -47.783718 -30.712303
5332.106934 2447.080811 3186.950439
-12.242471 -0.527990 3.552478
-12.822565 -0.313164 2.746473
-12.236097 -0.531096 3.586661
-12.516960 -0.696712 0.296281
-12.178578 -0.105138 3.376955
-11.654728 0.083052 2.749154
-8.918609 0.050899 5.630068
-11.347818 0.174883 3.034530
-11.556929 -0.848140 0.282155
-11.315880 2.084550 2.617489
-11.169250 0.043177 2.423293
-10.519472 0.244786 2.341738
-10.913695 0.338134 2.059150
-8.613836 1.056243 3.908123
-10.076632 0.439775 2.092463
-10.650629 2.676382 2.548119
-10.650280 2.676052 2.551279
1.641788 -5.696698 21.553818
-2.331086 2.043152 6.389387
-9.734792 1.009383 2.301959
-11.773661 -0.113380 2.425060
-12.266419 -0.122381 2.747876
-11.729460 -0.482861 3.715732
-12.104464 -0.167057 2.960721
-11.870586 -0.362094 3.444408
-11.300354 -0.047592 3.010189
0.941040 2.679049 11.217216
2.599192 2.867612 12.526425
-10.752447 0.419947 2.606283
-9.764719 0.566686 4.136874
-11.256583 -0.067413 3.086724
-11.246148 -0.004252 3.050668
-11.204605 -0.005694 3.131632
-12.118400 -0.182304 3.120121
-11.747698 0.112055 2.631396
-11.570160 0.545408 2.508259
-11.073667 -0.075263 3.059666
-10.696009 0.380053 2.440587
-10.493399 1.028286 2.367697
-7.961505 0.632143 4.997217
-10.401620 0.362161 2.503234
-10.458304 0.298042 2.457307
-10.464940 0.392395 2.428748
-10.483649 0.525644 2.342148
-10.630221 0.754191 2.765266
-11.287769 0.269797 2.667234
-9.813595 -0.087841 4.813622
-9.151226 -0.572460 5.707167
-9.783867 -0.103005 4.854403
-13.293070 -2.443314 3.097963
-9.977133 -0.276587 3.372399
-10.435572 0.326046 2.424742
-10.087010 0.549346 2.733240
-9.061945 0.848506 3.793641
-10.630152 0.230414 2.089755
-7.779162 0.183453 2.990716
-7.575092 0.219797 3.074080
-4.397839 -1.801462 7.549498
7154.616211 -13751.529297 9195.957031
7153.767578 -13750.944336 9194.716797
7153.745117 -13750.929688 9194.688477
7153.606445 -13750.845703 9194.484375
-10.499640 0.926806 1.525985
-10.711946 0.151445 2.757116
-10.716943 0.076951 2.868394
-8.187776 0.400717 4.663017
-9.794527 0.818747 2.439008
-9.381981 0.403836 2.554164
-9.271279 0.531283 2.680445
-9.490741 0.406854 2.449567
-11.212904 0.508441 2.591203
-11.273090 0.199132 2.998074
-7.377710 -3.696497 15.582857
-10.038540 -0.141577 6.149356
-10.468870 0.369748 4.351947
-11.786044 -1.700705 2.015337
-9.430069 0.340532 4.520800
-10.562696 0.159012 2.612126
-9.593966 0.547957 2.392072
-9.224781 1.259494 1.667852
-8.624894 0.714873 2.132818
-7.453695 2.224696 3.276442
-6.829037 1.243173 3.667659
-8.292295 0.864770 2.043549
-6.782125 1.195717 2.181988
-5.541143 2.714879 2.379294
-5.606675 3.298207 2.371838
-5.562248 2.280901 2.722469
-6.918374 1.194515 1.660700
-6.910096 1.842896 1.090956
5.427493 3.929671 5.468970
-6.538455 1.313304 1.756118
-5.918813 2.358516 2.307630
-6.105884 2.518296 1.277486
-7.050599 4.443213 1.257345
-3.927388 4.621853 2.452365
-5.680232 1.687669 1.660422
-5.641072 1.832863 1.526498
-5.980023 1.769056 1.319658
-4.755268 2.607404 2.423438
-5.157950 2.146872 1.595977
-4.764486 1.941396 1.232982
-5.440747 1.860137 0.991385
-5.025717 4.076551 2.137616
-5.170165 3.955527 2.101576
-4.022785 3.253803 1.923516
-4.096296 3.054027 2.215783
-3.972737 2.783677 1.156877
-3.488801 3.520646 1.912616
-3.648289 4.637679 1.784883
-4.519622 2.195886 2.858759
-4.508660 2.214301 2.931317
-0.090324 1.641367 6.379057
-5.685809 2.660061 1.797510
-5.689696 2.659672 1.796049
-3.210688 2.094993 3.936778
-3.469441 2.132494 3.771123
-3.894089 2.529652 2.719973
-5.017631 1.696204 1.830010
-4.251633 2.563500 2.058802
6.550448 5.299235 6.162141
-4.589815 2.662251 1.247903
-2.449440 3.661988 1.854804
-4.953339 1.933009 1.304945
-4.000145 1.725658 1.614751
-2.325656 3.162162 2.909594
-4.367956 4.014688 1.259456
-3.151538 3.160818 1.653919
11.070648 5.291556 8.269436
49.792850 12.747092 27.046427
-1.183693 4.024888 2.582750
-4.654060 2.783390 0.730672
-3.851330 4.486368 1.696573
-1.372822 3.815375 2.071692
-4.460210 3.226326 0.789382
3.508335 4.646611 3.264343
-3.231632 2.113343 0.408511
90.122803 3.457054 62.427708
-2.976660 3.231797 1.221407
0.164242 3.725088 3.057418
3.482212 1.105573 6.913393
0.569706 2.510316 2.683183
15.442810 2.099844 16.241936
0.897056 4.177783 4.086573
5.997778 -32.256493 18.995897
1.314100 4.930888 1.894833
-1.767128 3.608045 0.397458
138.183121 3.405021 33.418514
5.748941 5.221684 4.265315
-0.993011 4.150848 0.493379
0.473588 1.791409 1.520983
-0.943869 1.558797 -4.892207
1.865351 2.537431 0.173778
2.306155 3.348751 -0.446640
1.312699 3.285260 -0.550199
7.057506 2.613029 1.732963
0.155950 2.406988 0.601088
0.145884 2.410233 0.589155
2.876655 0.394257 -0.878733
19.232605 2.066167 4.061016
19.169441 2.071043 4.043877
1.233389 2.769164 -0.457020
1.217149 2.756920 -0.450937
0.333809 2.620256 -0.356763
-2.490599 -0.798018 0.449164
-2.576971 -0.517660 0.300229
3.573100 0.488279 1.617364
-17.611504 -2.905258 8.720104
-1.634656 0.438488 -0.604794
3.555445 0.496827 1.604816
-1.660046 0.352801 -0.519412
-1.121189 -8.907454 1.398115
-20.609783 -29.628574 2.933064
-14.769664 -6.660380 0.415996
808156.000000 -725843.750000 1292660.125000
-1.202979 2.743984 0.243689
-0.434996 1.044634 5.320566
-0.683542 2.206496 2.435393
0.604565 0.528822 5.843120
0.863096 2.709058 1.895129
1.602188 2.733203 2.346285
6.207179 0.998761 9.665249
-0.620238 2.275381 2.667238
3.906173 1.331772 4.766705
14.601308 -3.557700 17.746017
3.292483 2.075518 2.833419
0.462280 -1.385616 8.915211
1.582424 2.766888 2.041156
-0.998783 -0.276109 8.095061
1.362023 2.479772 2.207925
6.258893 -3.708557 15.879071
1.586546 2.347272 2.869266
2.193616 2.352809 2.142632
-63.091759 -179.953888 374.811676
2.048909 2.552225 1.865414
5.946467 0.928147 8.195073
