-3.545208 1.113914 -1.706321
-3.462064 1.015006 -1.579535
-3.966724 0.485956 -2.147259
-4.555284 -0.388129 -1.989858
-3.375533 -0.129395 -2.669515
-3.187057 0.975994 -1.880056
-3.702677 0.631919 -1.838013
-4.148617 0.237335 -1.602166
-3.345921 0.458730 -1.056942
-3.606656 0.412596 -1.045502
-4.255494 -0.213634 -0.988604
-4.402870 -0.054153 -0.616665
-5.167793 -1.075801 -0.646094
-26.021784 -12.559489 7.957804
-3.246796 0.058491 -2.154942
-3.205613 1.133475 -1.837780
-3.335225 1.149856 -1.708662
-3.790211 0.506958 -1.901956
-3.670280 0.490472 -1.797757
-3.964583 0.249769 -1.132748
-3.603037 0.352831 -0.789769
-3.806540 0.332079 -0.750609
-3.896497 0.391904 -0.344566
-3.208555 1.075861 -1.895843
-4.854096 -0.483744 -0.612234
-4.591066 0.308492 -0.164356
-5.021321 -0.996294 -0.271716
-4.050811 0.667379 -2.116163
-4.504306 0.043596 -1.428691
-4.530492 0.043504 -1.499179
-4.598226 0.089725 -2.053776
-4.198573 0.392832 -1.682475
-3.736107 0.209489 -0.906289
-3.402466 0.338220 -0.984706
-3.756703 0.445191 -1.378711
-4.407815 -0.395799 -1.974903
-4.772922 -0.250243 -2.340289
-4.297774 0.120623 -1.914962
-3.193203 0.888301 -1.949559
-3.170252 0.833957 -1.895700
-3.684138 -0.249966 -0.688291
-4.096405 -0.976343 -0.372060
-4.340246 -0.210392 -1.122129
-5.866686 -1.187346 1.504028
-3.345584 1.235708 -1.782539
-3.344827 1.185043 -1.785354
-3.358730 1.089411 -1.697957
-3.531846 1.243771 -1.796647
-3.572755 0.859403 -0.879413
-3.664941 0.807900 -0.397109
-4.070283 0.528981 -1.870019
-4.110366 0.490268 -1.746643
-4.093464 0.551049 -1.618097
-3.902775 0.105531 -1.670150
-4.769657 -0.100964 -2.201655
-4.406625 0.475448 -1.608155
-3.718565 0.552907 -1.314105
-3.637613 0.363464 -1.372806
-4.755979 0.203310 -1.928490
-3.669179 0.548018 -1.116229
-3.285869 0.379619 -1.053053
-4.342036 -0.429334 -0.763992
-3.926029 -0.121915 -0.714305
-3.827756 -0.192660 -0.711068
-3.836931 0.578691 -1.666270
-3.501014 0.525192 -1.445019
-4.492610 0.162582 -1.771090
-5.178759 0.025280 -2.148901
-4.284460 0.689507 -1.472052
-3.535434 0.309995 -1.218601
-5.244508 -0.162076 -1.712204
-3.499201 1.209238 -1.769013
-3.883578 0.512152 -1.999809
-4.199344 0.470586 -1.445896
-4.017790 0.077161 -1.309637
-3.626408 0.320425 -1.105230
-4.358477 -0.327689 0.182053
-3.120023 1.132424 -1.724505
-3.354218 0.432657 -1.044660
-3.296547 0.417295 -1.066333
-4.985178 -0.848488 -0.830210
-4.380723 -1.480740 -0.151524
-3.209464 0.507815 -1.079712
-4.132568 0.195719 -1.386881
-3.170402 0.833472 -1.896304
-3.733581 -0.299830 -0.665411
-4.749185 -2.180719 -0.305771
-3.258778 0.151296 -2.071427
-3.552501 1.132135 -1.655897
-3.131296 1.197428 -1.752293
-5.534831 -0.915102 -2.574666
-3.835180 0.315054 -0.698313
-5.537039 -1.569063 -0.079393
-3.681833 0.977016 -1.810038
-4.380497 -1.738979 0.499977
-3.495895 -0.047638 -2.253301
-3.522021 -0.061175 -2.308037
-3.577967 -0.114031 -2.436246
-3.156724 1.241024 -1.984271
-4.302206 0.115207 -1.886916
-4.605398 -0.026014 -2.018183
-4.226008 0.595979 -1.567545
-3.835908 0.151619 -1.524089
-4.110803 0.471173 -1.501011
-4.139766 0.426703 -1.521134
-3.843635 0.240421 -1.288915
-3.242780 0.398168 -1.069717
-3.387510 0.377152 -1.035753
-4.594915 -0.823775 -0.436957
-6.373656 -2.322007 0.341771
-4.226737 -1.499538 0.331479
-4.107549 0.649122 -1.416540
-3.383628 1.006486 -1.547912
-4.804377 -0.583636 -0.977169
-4.933951 -0.762942 -0.968605
-5.925801 -1.115380 -0.950402
-4.667580 -0.641420 -0.867261
-3.186901 0.957115 -1.880893
-4.319128 -0.024741 -1.862651
-4.290608 0.767885 -1.489883
-3.994529 0.490828 -1.530335
-3.781798 0.561929 -1.319008
-4.647640 0.057262 -1.365378
-4.309697 0.192620 -1.157369
-3.936865 0.165789 -0.530720
-3.714665 0.462845 -1.436875
-4.798917 0.471772 -2.133430
-3.996212 0.421665 -1.519661
-4.228483 0.404106 -1.633904
-4.092240 -0.352933 -0.636553
-5.190942 -2.021593 -0.288347
-4.848490 0.168602 0.725082
-3.390238 1.148110 -1.685987
-4.388978 -0.594944 -3.236012
-4.495274 -1.947174 -0.208591
-4.999114 -0.252843 -1.587878
-4.361270 1.420083 -1.937210
-3.935631 0.787825 -1.298419
-4.706990 -1.465231 0.158158
-4.162925 -0.054920 -2.170645
-3.621913 1.183067 -1.285474
-4.908295 -0.559381 -0.989920
-3.682458 1.259758 -1.808042
-4.284471 0.127310 -1.915017
-4.441355 0.081288 -1.404847
-3.745458 0.094034 -1.056816
-5.084928 -0.683301 -0.367207
-5.046841 -0.816176 -0.373329
-3.813778 -0.056642 -0.786459
-5.414780 -1.428106 -0.165359
-5.918081 -0.998161 -0.393661
-4.233140 -0.547771 -0.520647
-4.023653 -0.363567 -0.640968
-3.395022 0.076248 -2.021821
-3.895624 0.565596 -2.084127
-3.970088 0.556708 -2.167198
-4.066036 -0.245325 -2.576681
-4.705210 -0.436189 -2.999787
-3.616214 0.119228 -1.795683
-3.441206 0.505193 -1.279047
-3.267975 0.447287 -1.048147
-5.099940 -0.592765 -1.225311
-6.164532 -1.439047 -0.503398
-6.655826 -1.543999 0.189416
-3.628161 0.273662 -0.689414
-4.789546 -0.763655 -0.452078
-5.144039 -1.966920 -0.314785
-4.338484 -0.376501 0.229520
-3.211002 0.974680 -1.960171
-3.230195 1.132397 -2.003454
-5.130062 0.513664 -3.192745
-4.130813 0.595775 -2.158808
-4.095496 0.464616 -1.651212
-4.030296 0.295785 -1.585456
-5.034431 -0.731810 -0.563609
-3.339634 0.486345 -2.088163
-3.438394 1.077285 -2.040355
-3.435089 1.209602 -1.749825
-3.725310 1.241787 -2.004940
-3.630307 -0.102524 -2.548711
-4.202538 -0.222294 -2.529879
-4.653968 -0.358183 -1.435583
-3.629150 0.414835 -0.583712
-4.638214 0.677671 -2.328405
-4.365318 0.505288 -2.617611
-4.955660 -0.669038 -0.272934
-4.603090 1.590590 -2.097170
-5.407726 -2.265593 0.646773
-4.853549 -1.882151 0.215497
-4.028224 0.493232 -1.352013
-4.402125 -0.441012 -3.239759
-3.615559 1.210399 -1.490635
-3.162925 0.154507 -0.898186
-4.437717 0.105101 -1.964414
-3.183789 0.811261 -1.373834
-3.333650 0.519346 -1.119113
-3.691012 0.595613 -1.156343
-5.658383 -0.319422 0.413609
-3.490445 1.066488 -1.408155
-3.122152 0.235360 -0.976275
-3.991616 0.308875 -0.210309
-5.542830 -1.310650 -0.587834
-5.128642 -1.449457 0.678562
-4.499009 -0.887071 0.179280
-5.558834 -1.072521 -0.945272
-3.044117 0.332056 -0.980173
-3.010527 0.452645 -1.292732
-4.849986 -1.809619 -0.186887
-4.025558 0.711792 -1.525715
-3.903087 0.580231 -1.415869
-3.606852 0.593924 -1.221447
-4.116453 0.683462 -1.401807
-3.612922 0.524618 -1.147940
-5.251548 -0.945530 -0.969267
-5.100203 -0.861249 0.811797
-5.274157 -0.964134 1.132555
-3.758538 0.439265 -1.459224
-3.822324 0.447587 -1.507727
-4.011184 0.221137 -1.678046
-4.775882 0.629874 -2.684846
-2.974938 0.463282 -1.080176
-5.245104 -0.879523 0.961006
-3.332108 -0.054001 -0.785186
-4.097356 0.280690 -0.966067
-4.353638 0.483776 -1.749811
-4.143260 -0.289367 -2.667500
-5.587401 -0.976717 -1.313779
-4.382804 -0.155921 -2.371366
-3.320526 0.095986 -0.764023
-3.922666 0.449037 -1.549874
-3.387257 -0.196366 -0.728742
-3.436026 1.048156 -2.041291
-3.577013 0.803395 -1.334893
-3.457552 -0.251526 -1.835519
-4.230263 -0.346358 -2.793669
-3.418952 1.337110 -1.919860
-3.932957 0.695158 -2.062320
-3.660234 0.538482 -1.620656
-3.887857 0.322003 -1.549745
-3.420084 1.339754 -1.922109
-3.381442 0.978231 -1.889868
-3.730806 1.372152 -1.844945
-4.537024 0.704710 -2.480657
-4.425381 0.834612 -1.737635
-3.829946 0.632181 -1.303721
-3.916461 0.623297 -1.945066
-4.098368 0.446963 -1.650235
-4.283905 0.514913 -1.458217
-3.286930 1.187297 -2.306979
-4.238689 0.594989 -2.261710
-3.654023 0.329457 -0.889207
-4.209119 0.064962 -0.349902
-4.029659 1.194405 -1.713178
-4.181915 0.771042 -2.120071
-4.112194 0.210094 -1.408869
-5.342060 -0.819860 -1.308731
-3.631243 -0.457533 -0.599526
-4.529623 1.015669 -1.700616
-3.436587 1.047625 -2.041109
-3.042852 0.570551 -1.196716
-4.359268 -0.249520 -2.605185
-4.621379 0.098315 -2.066572
-4.681000 -1.040938 0.305724
-3.422946 1.221802 -1.898785
-3.507438 -0.007692 -0.800726
-4.323025 0.865252 -1.646313
-3.402182 1.174040 -1.862781
-4.818617 -0.882767 -0.328243
-3.759793 0.663913 -1.305409
-4.107848 0.571553 -1.617133
-4.293279 0.395482 -1.606660
-4.464922 0.406574 -1.809395
-4.097866 0.583851 -2.014299
-4.263611 0.507730 -2.307526
-4.280146 -0.115200 -2.284405
-4.156671 0.565424 -1.719681
-4.774064 -0.178015 -2.181257
-4.683192 0.167128 -1.838166
-4.374213 0.009314 -1.820251
-4.719603 0.143185 -1.185798
-3.701396 -0.195719 -0.709836
-3.513621 -0.015229 -0.800428
-5.190114 -0.780439 0.889753
-3.868819 -0.337373 -0.311764
-4.096969 0.632777 -2.027711
-3.919185 -0.121245 -0.744756
-3.233360 1.245132 -1.896946
-3.235404 1.237323 -1.892448
-3.139304 0.952398 -1.508139
-3.363915 0.457668 -2.185895
-3.418378 1.051543 -1.992563
-3.576388 -0.061383 -2.429870
-4.479551 0.172840 -2.729988
-4.082683 -0.253194 -2.586747
-4.790069 -0.490003 -3.153691
-4.636560 0.627038 -2.160338
-4.058949 0.738981 -1.524521
-4.996477 -0.624530 -1.271222
-4.844069 -0.461735 -1.199253
-4.319025 0.224853 -0.589525
-4.141993 -0.123609 0.066502
-3.234697 1.041523 -2.110005
-3.042616 0.569080 -1.196366
-3.498236 1.380323 -1.922006
-3.644912 1.384582 -1.880296
-4.142929 0.567035 -2.385882
-4.215027 -0.353193 -2.891348
-3.477691 -0.284475 -1.870650
-5.588243 -1.198001 -0.592054
-4.724065 -0.505914 -0.965621
-5.230781 -0.342603 1.103834
-3.074285 0.688664 -1.249066
-3.413257 1.204445 -1.879957
-3.401906 1.177580 -1.859029
-4.748374 0.568558 -2.314201
-4.468580 0.138854 -0.756841
-4.393645 -0.246056 -0.653180
-4.077995 0.589644 -2.112087
-4.090553 0.628558 -2.224025
-4.682033 -0.049915 -2.082653
-4.612518 0.250179 -1.774617
-4.211627 0.295468 -1.668484
-4.103397 0.745025 -1.579058
-5.781024 -0.375403 -2.959081
-4.622678 0.089268 -1.583562
-3.381588 0.973063 -1.891324
-4.529603 1.015662 -1.700607
-3.855819 1.072854 -1.600472
-4.224060 0.505335 -2.267517
-3.411941 1.041193 -1.978051
-4.438383 -0.373142 -2.833602
-4.351121 0.538206 -2.027496
-4.360932 0.584407 -1.840996
-3.757814 0.167176 -1.590517
-4.230236 0.763887 -1.497545
-3.643023 0.620339 -1.254738
-3.554998 0.549321 -1.104197
-3.733141 -0.001648 -0.808949
-4.231626 -0.195391 -0.631164
-5.061349 -0.909427 -0.314032
-5.600907 -1.423544 -0.104641
-3.570168 0.481574 -1.203875
-4.233046 0.242770 -0.952892
-4.925490 -0.667870 -0.709297
-3.362296 0.458845 -2.181216
-3.382241 1.143585 -1.821527
-3.572755 -0.059885 -2.419470
-3.362607 0.106771 -1.942363
-3.514186 1.410951 -1.949850
-3.311741 0.956020 -1.503459
-3.977981 1.447514 -2.084851
-4.815606 -0.508481 -3.182070
-3.987298 0.019674 -1.997862
-5.238192 -0.756455 -1.307377
-3.485112 0.377836 -0.894795
-4.720337 -0.935002 -0.332456
-3.743189 -0.236143 -0.691066
-9.640240 -4.952371 4.316924
-4.214004 -0.166010 0.131987
-3.176872 0.898463 -1.451038
-3.487134 1.457176 -1.984125
-3.923697 0.002267 -0.832146
-5.274365 -0.944136 1.004491
-5.185467 -1.871878 0.331339
-4.173162 -0.309937 -2.720560
-4.096975 0.632778 -2.027717
-3.811459 0.462373 -1.489121
-3.773002 1.411937 -1.887817
-4.448244 0.619540 -2.587734
-3.938001 0.335301 -1.523883
-3.398784 0.535079 -1.091704
-3.957519 0.058570 -0.799646
-3.231685 1.142960 -2.004675
-4.600846 0.394820 -1.809231
-3.401376 1.302856 -1.888570
-3.669945 0.349003 -1.801182
-3.357098 1.095538 -1.635276
-5.542427 -0.777546 -1.633277
-4.818843 -1.692298 -0.326112
-3.719195 -0.395636 -0.410258
-3.230089 1.235825 -1.883755
-4.789321 -1.383722 0.124506
-3.222862 1.016045 -2.054133
-3.914883 0.611371 -1.246059
-5.197151 -1.287287 -0.212533
-3.674030 1.325000 -1.841969
-5.103731 -0.160052 -2.480649
-4.163749 1.282099 -1.805107
-3.571098 1.164204 -1.458299
-3.543662 0.940742 -1.824764
-3.146129 0.976348 -1.531569
-4.121634 0.483665 -1.520933
-3.576431 0.397731 -1.043175
-4.752433 -0.549781 -0.982188
-5.078055 -0.864273 -0.647894
-4.162889 -0.185162 -0.604135
-4.070364 -0.112211 -0.676658
-5.342898 -1.098957 -0.215204
-4.895093 -0.827225 -0.378679
-4.863214 -0.946270 -0.345423
-3.210423 0.937595 -2.042608
-3.224378 1.118904 -1.972447
-3.308107 0.172678 -2.178662
-3.390053 0.346823 -2.315531
-3.413059 0.978835 -2.015855
-3.530623 -0.025135 -2.324953
-3.449023 1.293020 -1.841092
-3.683304 1.442064 -1.936275
-3.660527 1.306506 -1.826613
-3.866968 1.515419 -1.987365
-3.910882 0.548530 -2.111864
-4.031496 0.580005 -2.059936
-5.088014 -0.654275 -3.506612
-3.579482 1.102774 -1.173621
-4.294606 -0.318968 -1.903105
-5.043697 -0.538563 -1.520640
-5.083745 -0.700628 -0.817991
-3.931854 0.022076 -0.683997
-4.319039 -0.221194 0.233889
-3.981625 0.479587 -2.045685
-4.907157 0.569528 -2.424243
-4.551860 0.599717 -1.955054
-4.221183 0.149128 -1.870036
-3.239601 1.333087 -1.963122
-3.193085 1.121258 -1.768256
-3.256023 0.738822 -0.765920
-3.253714 1.082394 -1.851911
-2.767777 0.883116 -0.852226
-2.975406 0.082128 -0.858803
-2.615588 0.522298 -1.416238
-2.955255 0.238599 -2.062514
-3.198617 0.826616 -1.901722
-3.087626 0.666606 -0.804166
-3.143375 0.913624 -1.785869
-3.693058 0.321250 -1.693871
-2.931201 0.086580 -0.964845
-2.977218 1.090113 -1.784416
-3.355884 0.462576 -1.868952
-3.193571 0.481394 -1.501139
-2.769391 0.290227 -1.058688
-3.146500 0.482371 -0.585194
-3.043485 1.180503 -1.852710
-2.985451 1.100653 -1.795729
-3.684115 0.601944 -2.010067
-3.726449 0.584547 -2.084826
-3.775330 0.588554 -1.869425
-3.890422 0.506626 -1.732207
-3.672200 0.739815 -1.494583
-3.351444 0.048311 -2.208319
-2.781262 0.909993 -0.826681
-3.066271 0.688693 -2.033884
-3.360554 -0.009566 -2.555189
-3.210146 0.882406 -1.883427
-3.733987 1.084914 -1.709516
-2.956473 0.238029 -2.065888
-3.312230 1.130547 -1.912596
-3.513728 0.763056 -0.505215
-3.335345 0.738353 -0.611430
-3.252604 0.943719 -1.607113
-3.117827 0.991661 -1.634375
-4.124915 0.131711 -2.470718
-3.206918 0.509392 -1.188013
-2.680274 0.623450 -1.294971
-3.845778 -0.093195 -2.478525
-3.025873 1.121854 -1.951167
-3.115317 1.133687 -1.891329
-3.508392 0.506948 -1.835945
-3.366080 1.056972 -1.492239
-2.979380 0.077763 -0.855398
-4.007250 0.582986 -1.757066
-4.061993 0.579783 -1.806258
-2.991692 1.109197 -1.806149
-3.370118 0.560249 -1.728532
-3.828112 0.135341 -0.543779
-3.401273 0.576308 -1.826030
-3.676765 0.562143 -2.002125
-4.104221 0.607863 -2.388708
-3.656421 0.649527 -1.951452
-3.424763 0.607774 -1.801851
-3.795280 0.631098 -2.051754
-3.678994 0.538957 -1.787499
-4.140203 0.403450 -1.752155
-3.946941 0.443426 -1.748060
-3.900633 0.783221 -1.559205
-3.471542 0.493259 -1.570437
-2.621677 0.700869 -1.337629
-3.041618 0.370696 -2.159174
-3.152177 1.110572 -1.962535
-2.887875 0.279448 -1.772197
-3.771431 0.222343 -2.179983
-4.288987 0.517454 -2.075836
-4.551951 -1.782691 -0.483833
-2.612657 0.706136 -1.342402
-3.125813 0.421028 -2.006021
-3.654372 0.355587 -0.479582
-3.088611 1.165313 -1.961125
-3.153155 1.027599 -1.736496
-3.187610 1.032876 -1.785449
-3.468752 1.307551 -1.940939
-3.434319 1.129658 -1.736264
-3.451673 0.201733 -1.752522
-3.778192 0.247736 -1.514721
-3.243227 0.430645 0.424232
-3.006568 1.099730 -1.919468
-3.709149 -0.955598 -0.460983
-3.144374 1.172397 -1.856928
-3.078987 1.125648 -1.798363
-3.359121 0.636697 -1.379639
-3.023333 0.510478 -1.182871
-3.918118 -0.416902 -0.708589
-2.972529 1.099659 -1.729318
-4.389664 0.031800 -2.171746
-2.600156 0.511989 -1.194955
-3.588718 0.506622 -1.894163
-3.433598 0.571003 -1.495865
-3.408567 0.010768 -2.284727
-3.319866 -0.553400 -1.172252
-3.297313 -0.438567 -1.302218
-2.969286 0.945492 -1.080266
-3.559564 0.036360 -0.789222
-3.700553 -0.314537 -0.737435
-3.914071 0.487334 -2.175711
-3.756728 0.130180 -1.783230
-3.066804 0.553164 -1.204799
-3.913903 -0.286170 -0.897287
-3.887661 0.397536 -0.483759
-3.254759 0.283727 0.259857
-3.729971 0.597711 -2.023532
-3.249055 0.399207 -2.186171
-3.160950 1.010288 -1.757676
-3.375934 1.266417 -1.912958
-3.278351 -0.412930 -1.298853
-3.476076 0.754227 -0.531778
-3.216061 -0.401019 -1.171649
-2.704141 0.566467 -2.671277
-3.038022 1.132614 -1.763500
-4.431796 -0.288072 -2.792369
-4.030414 -0.228459 -1.921425
-4.252174 -0.376682 -1.958924
-4.121032 0.169353 -1.609650
-4.189058 -0.204956 0.085764
-3.038740 0.228260 -2.224743
-2.943707 0.247741 -2.034655
-3.294067 1.481659 -2.097695
-2.982383 1.095963 -1.791028
-3.651891 1.283113 -1.878374
-3.127372 1.152127 -1.836202
-3.481891 1.623712 -2.354718
-3.703317 -0.002701 -2.244421
-4.161329 -0.248332 -2.788728
-3.680788 0.678705 -1.469903
-3.646681 0.718798 -1.559372
-3.562190 0.430252 -0.612585
-3.635242 0.666120 -1.866825
-3.694400 0.673374 -1.953916
-4.197734 0.590838 -1.835396
-3.711275 0.482613 -1.678506
-4.706785 -0.059974 -2.334283
-2.769655 1.582501 -2.557978
-3.139557 0.234813 -2.116365
-3.356930 -0.009281 -2.553281
-3.580264 1.013854 -1.638049
-4.298292 -1.485473 -0.573648
-3.808969 -1.048380 -0.604087
-3.809792 0.210146 -2.214423
-2.986525 1.115596 -1.813510
-3.780615 0.166732 -1.708535
-2.606897 0.688367 -1.327307
-3.078184 0.542567 -1.875684
-3.253110 0.577704 -1.685173
-3.502476 0.653089 -1.831283
-3.401305 0.084901 -2.018860
-3.576600 0.013374 -2.288476
-3.964237 0.551272 -2.274699
-3.770270 0.513970 -2.151124
-3.604090 0.651543 -1.895178
-3.138082 0.570680 -1.542310
-2.971635 0.509575 -1.299742
-3.359077 0.496652 -1.522258
-4.262115 0.010725 -1.997240
-2.764354 1.551494 -2.516969
-2.920789 0.554758 -2.440436
-2.940731 0.250627 -2.028084
-3.053884 1.114666 -1.809605
-3.617875 0.590412 -1.782548
-3.204587 -0.384258 -1.172211
-4.154070 -0.987473 -0.642154
-3.595210 0.368321 -0.329532
-2.823822 0.946573 -1.726798
-3.025567 1.058984 -1.730257
-3.867046 0.634113 -1.552844
-3.986177 -0.113130 -1.118293
-2.689809 0.566903 -2.529403
-2.705499 0.567122 -2.689211
-3.181549 -0.006430 -2.533632
-3.075255 0.104119 -2.339197
-3.335753 0.292532 -1.166347
-3.006051 1.125243 -1.879326
-3.020982 1.120440 -1.944010
-3.050290 1.212455 -1.844446
-3.049153 1.186212 -1.860905
-3.062139 0.892706 -1.526480
-3.368993 1.086240 -1.788419
-4.063668 0.894723 -1.700678
-3.866232 0.706247 -1.520794
-4.111149 -0.204387 -2.599076
-3.155720 0.441116 -1.204148
-3.798742 0.193212 -1.807390
-3.047633 0.507149 -1.366177
-3.153751 0.227467 -2.140779
-3.058393 0.004505 -2.472911
-4.592626 -0.207822 -2.393426
-4.172789 0.313498 -1.775167
-2.968084 0.509362 -2.660403
-4.838045 0.374813 -2.024631
-4.267206 -1.107759 -0.454177
-4.516798 -0.952477 0.156141
-5.170414 0.658994 -2.892935
-4.242392 0.572536 -2.188564
-3.573355 0.309870 -0.922303
-3.034452 0.453124 -0.958744
-3.094239 0.137662 -1.998782
-3.617453 1.142493 -1.351914
-2.898198 0.432856 -1.322569
-3.376145 0.290311 -0.919108
-4.203315 -0.668723 0.445697
-2.906245 0.513218 -1.294077
-3.113337 0.455768 -0.891563
-3.139493 0.370925 -0.987760
-3.403914 0.281027 -0.911379
-3.157393 0.453081 -0.862677
-4.317027 -0.638206 -0.582356
-3.194737 0.442540 -0.852602
-3.682831 0.110688 -1.784516
-5.600832 -0.627399 -3.324793
-3.874454 0.236570 -1.385224
-3.710966 0.137963 -0.823536
-3.064423 0.451345 -0.954761
-3.141607 0.442602 -0.899893
-3.171691 0.437958 -0.894861
-3.736107 0.434801 -1.125358
-2.863766 0.470840 -1.090936
-3.350755 0.359083 -0.969574
-3.770894 0.549423 -1.805483
-3.323387 1.340819 -1.985970
-3.524282 0.258861 -0.668240
-3.646446 0.200416 -0.606031
-3.331420 0.295236 -0.775920
-3.095971 0.138989 -1.993504
-3.195587 0.747473 -2.090796
-3.413348 1.033632 -1.969066
-3.469383 1.044849 -2.071177
-3.922168 0.340788 -1.146868
-4.778247 -0.441634 -2.987516
-3.371327 0.235919 -0.872691
-4.493615 -0.637269 -0.776398
-3.226428 1.043837 -2.009571
-3.714688 -0.037708 -0.343508
-3.995224 0.579768 -2.191105
-4.171210 0.568634 -2.289736
-3.846603 0.501141 -1.726135
-3.802294 0.653528 -1.326612
-4.021480 0.649216 -1.347542
-3.862025 0.429640 -1.132123
-3.507036 0.210377 -0.887657
-2.912819 0.610329 -1.258601
-4.084602 0.607726 -2.131409
-3.077994 0.432594 -1.003162
-4.644942 0.857213 -1.826160
-3.866164 -0.151022 -0.850647
-3.531783 0.261761 -0.678651
-3.345942 0.299501 -0.776200
-3.540548 1.336220 -2.074132
-4.265797 -0.016139 -1.867778
-4.723521 -0.627588 -2.186571
-4.703482 -0.576939 -2.185171
-3.784370 0.155934 -0.801799
-3.062597 0.440720 -0.889277
-3.767294 -0.905335 -0.423192
-3.244246 1.478581 -2.054561
-3.760841 -0.470213 -3.542676
-2.969790 0.298329 -1.560341
-3.497835 1.066793 -2.120003
-4.200849 0.543723 -2.420868
-4.210839 -0.282964 -2.767518
-4.430050 0.279461 -1.179459
-3.626880 1.437142 -2.017633
-3.599389 1.355483 -1.953908
-3.796403 1.245957 -1.871551
-2.974732 0.468893 -0.945279
-3.199338 1.311389 -2.149024
-3.952866 1.461247 -2.057965
-4.530958 -0.338420 -2.790664
-3.711344 0.104506 -1.846240
-3.793144 0.111488 -1.695811
-4.351590 0.487273 -1.925531
-3.238326 1.054249 -2.019276
-4.241620 0.063360 -1.788165
-3.442561 0.282232 -0.757647
-3.228878 0.432116 -0.864297
-3.876776 0.059246 -1.866752
-3.353753 -0.061544 -2.487184
-3.923682 1.260477 -1.616945
-3.345984 -0.338266 -0.511062
-3.100607 0.133597 -2.007288
-3.792984 -0.258147 -2.791267
-5.084005 -0.293587 -2.236940
-3.832373 0.577121 -1.168252
-3.851510 -0.011805 -1.065022
-4.127122 -0.131498 -1.063148
-3.397423 0.429751 -0.706676
-3.481859 0.270463 -0.738097
-3.380524 0.278575 -0.747666
-3.045091 0.443577 -0.903263
-3.147895 0.232086 -2.283090
-3.289796 1.308541 -2.047625
-3.318555 1.382795 -1.971379
-4.453162 0.470007 -2.465522
-3.882394 0.493120 -2.042208
-4.579092 0.503298 -2.684054
-4.223224 0.630440 -2.156714
-3.082581 0.446142 -0.964502
-4.266150 -0.338336 -0.530596
-2.946804 0.464756 -0.983304
-3.030637 0.461194 -0.915240
-3.165175 1.259606 -2.026790
-3.141801 1.201845 -1.968491
-3.583638 1.465300 -2.107723
-3.486014 1.376211 -2.027282
-3.882185 1.400959 -1.996392
-4.659967 0.063495 -2.119756
-4.519271 0.453120 -1.915235
-5.047366 0.539645 -2.042571
-4.768686 0.479574 -1.944611
-3.837654 0.484756 -1.568205
-4.236269 0.006751 -1.794783
-5.731652 -0.432334 -2.582078
-4.969751 0.083981 -2.076462
-4.450850 0.652067 -1.655419
-3.129360 0.412807 -1.007212
-3.807058 -0.023478 -0.796403
-3.837852 -0.054826 -0.827256
-3.992916 -0.312008 -0.678675
-4.342080 -0.427096 -0.710680
-4.001419 -0.232382 -0.824284
-3.119055 -0.015604 -2.374073
-3.171203 -0.006227 -2.497844
-3.136313 0.152541 -2.290466
-2.912270 0.605950 -1.258261
-4.219109 0.552566 -2.431932
-3.174081 1.791185 -2.228144
-3.033355 0.216522 -1.784000
-3.780062 1.623334 -2.198369
-3.763857 1.463171 -2.009907
-3.756011 -0.109441 -2.448312
-4.644180 0.536245 -2.246258
-4.083697 -0.030954 -1.225623
-3.256540 1.162748 -2.046082
-3.188384 1.213526 -1.848619
-3.248577 1.300476 -1.960624
-4.174651 -0.307930 -2.704574
-3.199639 1.366401 -2.091226
-3.581017 1.562780 -2.219353
-4.104888 0.560578 -2.224504
-3.600541 0.243658 -1.017779
-4.023939 -0.181549 -2.537656
-3.013798 0.391913 -1.251457
-4.225592 -0.651899 -1.233675
-3.674461 0.543606 -1.146701
-3.194527 1.317926 -2.126674
-3.183877 1.295087 -1.977606
-3.472322 1.046922 -2.075063
-4.305741 1.344559 -1.897046
-3.825505 0.015350 -2.034070
-3.817034 -0.279260 -2.834060
-3.248150 -0.053109 -2.519478
-3.549692 0.777218 -0.610488
-7.761165 -3.308117 0.777455
-6.199213 -2.006555 0.227805
-4.739414 0.145728 -1.866341
-4.355769 0.782748 -1.549230
-8.591139 -3.044465 0.814268
-5.936758 -0.437794 1.674345
-3.361157 0.605501 -2.070166
-6.433183 -1.932991 -0.402489
-3.369405 0.889337 -1.921797
-4.321330 -0.248518 -2.605571
-4.873019 0.811612 -1.325631
-3.465895 0.426046 -1.042990
-4.352389 0.807900 -1.662078
-6.660299 -0.120614 0.599222
-5.224403 -0.226699 -2.433470
-7.801305 -2.153281 0.017619
-5.721839 0.147326 0.176706
-8.005481 -2.757953 -0.093512
-7.735527 -2.443654 0.156468
-7.001701 -2.413095 0.380112
-5.625098 -0.352568 0.485818
-4.433646 -0.738762 -0.436575
-5.256428 -0.357567 -2.468973
-8.274961 -2.356904 1.141204
-3.229947 1.171063 -1.928225
-7.612974 -1.916894 0.180145
-5.328887 -0.945109 1.153356
-4.412796 0.787532 -1.506794
-4.901897 0.907812 -1.742939
-4.131302 -0.174947 -2.469270
-3.920888 0.806163 -1.324846
-3.386378 1.006695 -1.909994
-5.560480 -0.239418 -1.168471
-5.358669 -0.880039 -0.949653
-4.805353 -0.865753 -1.777576
-5.418158 0.017496 -1.374830
-4.432132 0.145145 -1.175643
-5.149447 -0.650961 -0.161868
-3.787737 0.338524 -0.945428
-4.832086 0.153344 -1.018089
-12.054467 -0.871814 3.597020
-7.117402 -1.521660 0.371828
-4.686930 0.242327 -1.807006
-5.811527 0.602957 -3.029335
-4.852684 -0.082005 -2.301519
-6.365055 -2.134868 0.297122
-4.833823 1.708836 -2.197843
-4.031562 0.495463 -2.220257
-4.207587 -0.219216 -2.569341
-4.116430 0.511741 -1.664263
-4.434185 0.622579 -1.642629
-6.449774 -0.456019 -1.446292
-5.871329 -1.059360 -0.891271
-4.712398 0.158713 -0.522376
-4.363533 0.205502 -0.632683
-4.138005 -0.254876 -0.836445
-7.317088 -2.641094 0.489274
-9.153227 -3.899616 1.224847
-4.703649 -1.656064 -0.193849
-5.838037 -1.262929 1.609138
-5.698186 -2.409927 0.657199
-5.214223 0.095829 -2.170335
-8.735629 -0.179835 1.592297
-4.224941 0.742956 -1.446182
-3.992349 0.700006 -1.403112
-7.460904 -1.837098 0.115249
-6.342809 -0.326779 -2.115043
-6.802412 -0.735933 -3.031411
-6.303121 -1.597147 -0.924174
-7.195978 -2.274861 0.306376
-5.051779 1.141626 -1.968339
-4.099613 0.408534 -1.092925
-7.529085 -2.023681 0.002136
-7.890122 -2.309422 -0.103961
-8.625867 -2.674818 -0.401113
-7.315848 -1.341714 0.140462
-5.149447 -0.650961 -0.161868
-3.413987 0.507423 -1.080552
-7.446644 -1.759031 -0.061191
-4.607620 -0.066803 -1.983778
-5.241824 0.981411 -1.875382
-4.141113 0.573567 -2.254926
-6.600799 -0.506719 -0.614917
-4.330122 0.093260 -1.368000
-3.508894 1.042833 -1.242423
-7.554793 -3.232109 0.805192
-3.363606 0.966914 -1.865131
-4.120239 -1.501807 -0.123347
-3.699243 0.724050 -1.256865
-4.648946 -0.667782 -1.967011
-5.653962 0.149545 0.146743
-4.864811 -1.578056 -0.041946
-4.611321 -0.192193 -2.235243
-7.401728 -2.607811 -0.230290
-4.512940 1.491048 -1.993407
-3.369614 0.889992 -1.919541
-4.030297 -0.091744 -2.255870
-4.988516 -0.087106 -0.798894
-3.849464 0.579454 -1.347551
-3.168515 1.043100 -1.641042
-4.451773 0.464320 -2.540229
-4.637489 -0.073977 -2.002132
-4.400633 0.168597 -0.993410
-6.358705 -1.910987 0.193108
-7.083832 -2.357657 0.313719
-6.390867 -2.187401 0.295770
-3.208609 1.068432 -1.899984
-7.669281 -2.090071 0.060753
-6.465439 -0.781288 -0.059170
-7.943795 -2.776355 -0.013452
-4.358092 -0.277192 -2.645587
-5.615511 -0.358373 -2.406883
-4.920344 0.066700 -0.858040
-5.078366 -0.004223 -0.611749
-4.553046 0.557402 -1.650979
-5.296352 -1.170194 -0.225517
-14.088427 -5.900765 1.628307
-4.715749 0.135876 0.649259
-4.557768 -0.452943 0.372513
-4.042997 0.324892 -1.047722
-7.302539 -2.536779 -0.267073
-4.581532 1.537347 -2.037641
-4.028209 -0.131334 -2.319148
-3.147770 0.759940 -0.855193
-3.124072 0.427518 -0.921410
-2.643733 0.561497 -2.448424
-3.956405 0.487523 -2.228837
-3.428598 0.086738 -1.163306
-4.497467 -0.756918 -0.514814
-3.062697 1.209913 -1.869277
-3.005573 1.199596 -1.869150
-3.269626 1.397202 -2.144181
-3.916725 0.738263 -1.651843
-3.181730 0.576104 -1.597725
-3.837631 0.693268 -2.051125
-3.131346 0.292496 -2.434091
-4.037095 0.152974 -2.452154
-4.467524 -1.122963 -0.142198
-3.143676 -0.072717 -2.699034
-2.962055 -0.093739 -2.129739
-2.763724 1.499556 -2.482784
-4.218966 -0.213647 -1.571996
-3.414516 1.194470 -2.070944
-4.022205 0.664538 -2.354098
-2.598965 0.484606 -1.444763
-4.751285 0.674087 -2.486747
-3.404200 0.555871 -1.629766
-2.743271 0.473179 -1.199457
-2.958969 0.483237 -0.956901
-4.905201 -0.170066 -2.265611
-3.907969 0.078945 -1.861093
-2.696931 0.546575 -2.881963
-2.940691 0.508021 -2.671378
-3.011135 0.331711 -2.222981
-3.139296 1.082570 -2.049187
-3.275035 0.991772 -1.702636
-3.543754 1.145159 -1.869066
-3.675477 0.525555 -2.140498
-3.250511 0.795461 -0.803260
-2.825298 0.939174 -0.842252
-3.113267 0.736840 -0.811827
-3.251815 0.461750 -0.748580
-3.432113 0.081369 -0.509351
-2.927533 1.352964 -2.315231
-3.609092 1.634848 -2.389746
-3.046495 0.790890 -1.459280
-3.494547 0.056177 -1.160417
-2.869292 -0.231265 -3.306178
-2.717723 1.228218 -1.829983
-3.173952 1.387609 -2.059770
-3.028966 1.158216 -1.885716
-3.271576 1.191122 -1.947826
-3.647307 1.334183 -2.000237
-3.314801 0.164925 -1.931553
-3.669433 0.275797 -1.302055
-3.317755 -0.010800 -0.913014
-4.004808 -0.364761 -0.703461
-3.394626 0.576972 -1.809433
-3.568376 0.539315 -1.469393
-4.502732 0.461589 -2.054921
-2.603730 0.553438 -2.062850
-2.711125 0.574400 -2.754998
-2.696891 1.308476 -2.229541
-3.352834 1.052236 -2.067343
-3.007649 1.539107 -2.434829
-3.122472 -0.045649 -2.595531
-3.101457 1.254617 -2.157867
-3.489568 -0.157248 -2.884280
-3.328378 0.297661 -1.984233
-3.225079 0.533509 0.161927
-4.118328 -0.834266 -0.329375
-4.195757 -0.255699 0.266358
-3.125779 -0.187285 -0.699927
-3.297273 -0.010825 -2.522574
-3.430202 0.575367 -1.832033
-2.821098 0.557187 -1.237141
-3.522961 0.255655 -1.309444
-2.654774 0.548921 -2.513716
-3.328629 0.137746 -1.964886
-4.301157 -0.299675 -2.827521
-3.970240 0.656846 -1.645712
-3.084374 0.566513 -1.422278
-2.693631 0.545923 -2.857134
-2.602931 0.551595 -2.058374
-3.147154 0.503436 -3.315976
-3.152050 0.559371 -3.252813
-2.905127 0.506138 -2.573553
-3.031859 0.322481 -2.260913
-3.163789 0.334349 -1.510610
-3.041840 0.597739 -1.342604
-3.809784 0.228288 -1.567313
-3.098398 0.465943 -0.898391
-3.574305 -1.062936 -0.458801
-2.712643 1.209508 -1.813065
-3.235218 1.294930 -2.050524
-3.186141 1.296456 -2.059937
-3.377321 1.222296 -1.905174
-2.788604 0.617368 -1.015697
-3.075168 0.695685 -0.866521
-3.043601 1.239573 -1.910178
-3.027884 1.196561 -1.996107
-3.455550 0.009779 -1.180098
-3.167320 0.619165 -4.372668
-3.227446 0.531155 0.165455
-3.230578 1.151583 -2.158834
-2.974825 -0.256099 -2.027015
-3.111298 0.204197 -1.827173
-4.061351 -0.798380 -0.531087
-3.025707 1.215624 -1.827708
-3.319239 1.310942 -1.999774
-2.756078 -0.017790 -2.708554
-2.649693 0.548755 -2.477976
-2.580484 0.548314 -1.914243
-3.048471 1.245044 -1.917369
-3.107659 1.153212 -1.886783
-3.290582 0.266489 -1.579800
-3.327606 0.078568 -1.018705
-3.880033 -0.270475 -0.731581
-3.882454 1.915383 -2.707102
-3.159690 1.272277 -2.040466
-2.959780 -0.232631 -2.002513
-3.508600 0.250309 -1.479143
-4.332057 -0.355938 -1.369545
-4.390146 -0.550812 -1.004491
-4.102228 0.184175 0.114053
-3.155992 1.242100 -2.044920
-3.116711 1.020723 -1.709355
-3.364439 -0.054890 -2.635043
-4.197131 -0.101962 -2.255565
-3.178712 0.442775 0.380424
-2.479252 2.071685 -3.193344
-2.962527 0.549682 -2.733248
-2.984955 0.667632 -0.904035
-3.382807 -1.108913 -0.462279
-2.975271 1.434425 -2.238130
-2.736603 0.990816 -1.817346
-2.888583 0.482635 -1.024132
-3.255408 0.531852 0.216336
-2.695208 0.545083 -2.848773
-3.163232 0.551911 -1.990563
-3.648609 0.516419 -1.441547
-3.501671 0.536336 -1.465315
-3.222756 0.352697 -1.278988
-3.058166 0.452494 -1.200259
-2.951366 0.422882 -1.182161
-4.316588 -0.432437 -0.668737
-3.121779 0.526655 -1.598339
-2.705898 0.553655 -2.104298
-2.695424 0.563512 -2.552666
-3.111910 0.194400 -2.396245
-3.005286 0.620783 -1.954220
-3.211221 1.105461 -1.818640
-3.199987 0.464259 -0.803100
-3.321806 1.161667 -1.862368
-3.380691 1.123416 -1.760751
-3.385236 1.028593 -1.702344
-3.579809 -0.010544 -2.205822
-3.791430 0.827438 -1.605201
-2.810437 0.533553 -1.187403
-3.029210 1.153538 -1.863549
-3.157614 1.339535 -2.142685
-3.023155 1.122459 -1.948899
-4.277387 0.154489 0.253829
-3.650172 0.294353 -1.255828
-4.301429 -0.373488 -0.529159
-3.212579 -0.396014 -1.172430
-3.255548 -0.077231 0.207611
-2.704446 0.567952 -2.671489
-3.004822 0.211307 -2.174629
-4.090500 -0.037229 -2.093917
-2.994752 0.572109 -1.277865
-3.310045 0.022448 -0.262274
-3.685659 0.509895 -2.080781
-2.984801 0.506141 -2.720636
-3.212963 0.084116 -2.315196
-3.280658 -0.415870 -1.302720
-3.836040 0.568117 -1.690553
-3.852860 0.181375 -1.851844
-2.696374 0.564251 -2.565661
-2.704201 0.567252 -2.667217
-2.690866 0.559979 -2.490380
-3.016047 1.134506 -1.846808
-3.625778 0.172986 -1.711128
-3.520886 0.037916 -1.119470
-3.652612 -0.319805 0.175242
-4.633475 -0.682739 -0.546486
-2.739914 0.569807 -2.604755
-3.024475 0.147113 -2.216662
-2.976045 1.094107 -1.738046
-2.947159 0.775419 -1.425366
-2.895753 0.763909 -1.418448
-3.983746 -0.298936 -1.026648
-4.201975 0.246692 0.159434
-3.967647 -0.142821 -0.128435
-4.008774 -0.293135 -0.083692
-2.684562 0.557681 -2.408781
-4.173178 0.055910 -0.366529
-3.029025 1.158136 -1.915040
-3.122141 0.354252 -1.423678
-3.287876 1.130237 -1.776749
-3.377230 -0.023834 -0.183289
-2.986116 0.507189 -2.724291
-2.722867 0.520693 -2.241528
-3.004482 0.410675 -1.355547
-3.184154 0.725435 -0.753033
-3.147681 0.694360 -0.726453
-3.034335 1.178375 -2.050115
-3.157026 1.212360 -1.940336
-3.382969 1.256065 -1.929782
-3.635976 0.141285 -0.864104
-4.469289 -0.619809 -0.789914
-4.181785 0.417240 -1.911489
-4.401193 -0.012823 -2.063348
-3.517776 0.289576 -1.279737
-4.433965 -0.898734 -0.457429
-3.184577 1.272650 -1.993445
-3.865500 0.536713 -2.172534
-3.978791 0.521186 -2.268194
-3.864910 0.657593 -2.152120
-4.230775 -0.824754 -0.504996
-2.803565 -0.053924 -2.885681
-2.595886 0.492645 -1.435929
-3.204206 0.096435 -2.346411
-2.593164 0.487444 -1.434366
-3.986964 -0.175245 -2.681698
-3.555490 1.022610 -1.688527
-4.104200 -0.505907 -0.838442
-2.976881 1.140940 -1.877293
-3.229620 1.236892 -2.115146
-3.155941 1.134804 -2.045202
-3.774453 0.249037 -1.515224
-4.369737 -0.643043 -1.670305
-3.477398 -0.878740 -1.005159
-3.092968 0.764673 -0.857663
-3.006434 1.139821 -2.013079
-3.708991 -0.191283 -1.007058
-3.818746 1.111096 -2.241824
-3.188775 0.741181 -2.021954
-3.872069 0.494063 -2.159303
-3.384137 0.946534 -1.612286
-3.556850 0.544022 -1.527193
-3.274943 0.309841 -1.115411
-3.647714 -0.452370 -0.706689
-3.126760 1.211955 -1.930435
-4.024434 0.541324 -2.029538
-3.792380 0.482369 -1.775149
-3.489842 0.297387 -1.279279
-3.054431 0.698366 -0.859999
-4.296551 0.586434 -2.490677
-3.812305 0.532126 -2.134776
-4.355620 0.602768 -1.944550
-4.129803 0.665953 -1.724065
-3.113126 0.514609 -1.225556
-2.982177 0.697564 -0.902914
-4.630032 -0.526947 -3.253235
-4.098922 -0.058461 -2.246915
-3.495355 0.572583 -1.876960
-4.472396 0.245940 -2.024123
-3.622289 0.148870 -0.571393
-4.415716 -0.376973 -3.084101
-2.908757 0.442250 -1.098788
-2.653874 0.565430 -2.509962
-2.687120 0.573638 -2.748994
-3.193816 1.380437 -2.136551
-4.839904 0.019660 -2.358464
-2.866908 0.207362 -1.045015
-3.578312 1.551866 -2.218506
-3.031816 1.231374 -1.825694
-3.144936 1.407599 -1.989391
-4.057650 0.187416 -1.582528
-3.788770 -0.795963 -1.497663
-4.843992 -0.250001 -2.244063
-2.604997 0.629496 -1.381219
-2.784419 -0.019483 -2.791067
-3.045291 -0.200580 -2.283800
-3.051054 0.393030 0.072970
-4.172458 -1.387691 0.154583
-3.878849 1.438563 -2.068164
-3.947506 1.442146 -2.124998
-4.516056 0.596482 -2.644444
-3.613106 0.539752 -1.821047
-3.188938 0.740290 -0.829001
-4.467902 -0.618024 -0.792773
-3.829305 0.591420 -1.745908
-3.910196 0.574037 -1.834461
-4.427729 0.679152 -1.766760
-3.899495 0.645458 -1.653651
-4.384250 0.193779 -1.954156
-4.361692 -0.011808 -2.019960
-4.368530 0.798477 -1.695783
-3.916262 0.750646 -1.613392
-4.619185 -0.793787 -0.483871
-3.814067 0.588264 -2.084756
-3.715929 -0.139926 -0.977831
-4.001446 -0.311281 -0.730198
-3.379665 1.712938 -2.261853
-3.195558 1.249652 -1.982684
-3.537807 1.014252 -1.675045
-2.976422 0.341975 -1.565890
-3.199291 0.534346 0.116014
-3.186375 1.347203 -2.280199
-3.094420 1.240195 -2.144009
-3.236197 0.077809 -2.391735
-3.244359 0.022615 -2.431496
-4.167262 0.137407 -2.074872
-3.551561 0.287731 -1.508497
-3.637619 -0.648066 -1.465880
-2.744942 0.522313 -2.324668
-3.129495 1.080711 -2.029655
-3.721750 1.249764 -1.961176
-3.723979 0.459650 -1.751566
-4.148186 0.415852 -2.076992
-4.571841 -0.441632 -3.067391
-2.993211 0.708637 -0.878314
-2.641710 0.554315 -2.445506
-2.683243 0.572694 -2.721212
-2.674868 0.541598 -2.593393
-3.041452 1.219183 -2.027413
-3.132756 1.078540 -1.816742
-4.365272 -0.673273 -0.561512
-2.910338 1.330139 -2.274938
-4.055189 0.015502 -2.009920
-3.566257 0.322387 -1.355085
-3.112460 1.265435 -1.923452
-4.132082 0.737692 -2.302378
-3.921326 0.181085 -2.360147
-3.178671 1.181747 -1.855350
-2.975256 1.114720 -0.690403
-2.674942 0.571097 -2.662169
-2.765092 0.004248 -2.734514
-3.038865 1.216576 -2.019494
-3.664336 0.680497 -2.010141
-3.923735 0.664827 -2.198386
-3.079573 0.807561 -1.474821
-3.689491 0.542353 -1.861301
-3.201693 0.494455 -1.504533
-3.952541 -1.132133 -0.026025
-4.044238 -1.242867 0.052473
-3.987194 0.551464 -2.289061
-4.389863 0.644617 -2.278476
-4.183492 0.473562 -1.935026
-4.252106 0.489338 -2.009067
-4.020424 0.091387 -1.889207
-4.062181 0.031917 -1.942477
-3.344227 -0.027825 -0.904205
-3.120139 1.172679 -1.902048
-3.511178 1.133078 -1.845772
-4.281235 -0.138321 -2.492576
-3.119458 0.597658 -1.268452
-2.803382 0.914208 -0.864940
-3.169295 1.110080 -2.085504
-3.247049 0.071737 -2.408785
-3.024547 0.423630 -1.478086
-3.192076 0.497964 -1.521292
-4.405833 0.510352 -2.183776
-3.035709 0.323046 -1.606673
-3.587522 0.116915 -2.001205
-4.153927 0.229194 -1.866428
-3.817483 0.862855 -0.333402
-4.139593 -0.732640 -0.558586
-3.298542 -0.143371 -0.866463
-3.340030 0.534067 0.370415
-3.888175 1.501369 -2.160210
-3.688936 0.006557 -2.241335
-3.822138 0.718103 -1.562924
-3.373818 0.100315 -1.273211
-4.104730 0.226700 -1.590298
-3.510231 0.317685 -1.156536
-3.995088 -0.314794 -2.615662
-3.496349 0.370041 -0.831657
-4.061328 -0.246016 -2.694924
-3.786786 1.191369 -1.680864
-3.553918 1.031445 -1.634348
-4.620973 0.287514 -0.220127
-3.653320 1.424348 -1.982360
-4.960470 -0.119509 -2.364794
-7.364665 -2.255884 0.539799
-4.564273 -0.878292 0.231469
-6.644182 -2.502648 0.512860
-4.050910 -1.181870 -0.266688
-7.671942 -2.030744 0.562830
-7.842673 -2.608253 0.042145
-6.725566 -0.221473 0.241328
-3.182563 0.167005 -0.899457
-4.991724 0.157578 -0.809900
-3.073033 0.615007 -1.347241
-3.985998 0.530284 -1.178236
-7.374418 -2.887201 0.687460
-7.691659 -3.169181 0.785106
-4.135875 0.736776 -1.418287
-4.795662 0.745606 -1.459865
-3.112015 0.405847 -1.016914
-4.097215 0.502849 -1.101064
-3.140640 1.185225 -1.918779
-5.831146 -0.039512 1.797507
-3.363849 0.884135 -1.907845
-3.364220 0.882951 -1.908976
-3.341393 0.564539 -2.033972
-3.387843 0.969698 -1.922724
-3.203236 1.057031 -1.875774
-7.834792 -2.129341 0.967733
-8.240644 -2.325307 0.745424
-3.072974 0.614769 -1.346950
-4.224582 0.379530 -1.052148
-4.342015 0.257232 -0.885282
-4.500815 0.291633 -1.051021
-4.091388 0.358071 -1.056331
-6.640896 -0.680688 -0.457093
-6.172985 -0.190143 -0.284020
-6.357019 -2.127532 0.301525
-3.452400 -0.298243 -0.681071
-8.767840 -2.752020 1.268325
-5.286288 0.761182 -2.997432
-4.229912 0.759064 -1.450010
-7.225126 -2.013553 -0.041186
-8.438667 -2.947666 0.768525
-3.385160 0.967182 -1.916178
-9.198661 -2.925155 -1.724504
-4.414005 0.946967 -1.675885
-6.509258 -0.079379 2.290810
-6.786241 -2.610931 2.023394
-3.140491 1.184702 -1.917734
-3.371495 0.449880 -2.199113
-4.619514 -0.327293 -1.065703
-3.189187 0.836625 -1.960931
-4.226022 0.608162 -1.481946
-3.366759 0.885910 -1.915212
-4.064174 -0.236027 -2.563012
-3.970560 0.486007 -2.025842
-3.895903 0.590924 -1.127770
-9.862361 -2.859944 1.347521
-10.643552 -1.978620 0.234524
-7.998554 -1.374704 2.088438
-5.432982 -1.695834 -2.501907
-3.204798 1.098375 -1.853563
-3.839585 1.322952 -1.900513
-4.540304 0.144769 -2.030116
-4.253661 0.133882 -1.818033
-3.182410 0.388990 -1.251642
-3.045331 1.112590 -1.793429
-3.586889 0.009262 -2.107877
-3.430047 0.115826 -1.950545
-3.498144 0.039897 -2.013005
-3.457954 0.070594 -2.018656
-4.197133 0.528254 -2.022932
-3.281610 0.457471 -1.460576
-3.536854 0.543031 -1.494746
-3.640984 0.443891 -1.553786
-3.379882 0.362001 -0.946131
-3.062715 1.007077 -1.662907
-3.569388 0.539230 -1.550480
-4.120965 0.075218 -1.789475
-4.177160 0.145424 -1.954722
-3.117850 0.568567 -1.799325
-2.764239 0.502209 -1.275375
-3.356769 0.352087 -1.296563
-3.138644 0.696528 -1.766778
-2.953673 0.143866 -2.041472
-3.844354 -0.035482 -1.200966
-3.111157 0.421290 -1.098324
-3.875084 -0.035877 -0.928401
-3.912516 -0.172274 -0.920970
-3.424675 -0.009061 -0.867644
-4.274550 -1.336869 -0.259124
-3.033377 1.056698 -1.837620
-3.024106 1.048524 -1.840775
-3.036383 1.102468 -1.841317
-3.228302 1.081507 -1.697522
-3.190206 0.157333 -1.893107
-3.522648 0.594766 -1.785202
-3.650678 0.068815 -2.000446
-4.012256 0.470212 -1.746954
-3.543001 0.495502 -1.567269
-4.347155 0.023136 -1.997709
-3.492080 0.538374 -1.389417
-4.077483 -0.347556 -0.850760
-3.632062 0.017114 -0.897127
-4.079585 -0.288549 -0.688295
-3.287256 0.441854 -0.735947
-3.183661 0.421155 0.157937
-3.094739 1.072111 -1.713092
-3.520339 0.525065 -1.855251
-3.517354 0.559791 -1.620434
-3.471907 0.479331 -1.492093
-3.592985 0.416206 -1.511819
-3.230791 0.376834 -1.170611
-3.521166 0.498498 -1.589368
-3.308666 0.513376 -1.506372
-3.507940 0.637294 -1.375342
-3.408330 0.021166 -0.872994
-3.820287 0.161547 -0.485172
-3.130697 1.016366 -1.677061
-3.203585 0.934493 -1.747912
-3.149670 0.962863 -1.581292
-3.720934 -0.002264 -2.172908
-3.546611 0.628196 -1.782052
-3.691720 0.222520 -1.708960
-4.016315 0.008889 -1.961949
-3.190986 0.311199 -1.490355
-3.879567 0.094388 -1.783366
-3.847527 -0.204850 -0.989609
-3.022608 0.207640 -0.982928
-2.893147 0.495623 -2.132805
-2.916297 0.532231 -2.225408
-2.931287 0.534538 -2.302952
-3.264653 0.951799 -1.549577
-3.481793 1.133129 -1.802202
-3.324625 0.118454 -1.852046
-3.229437 0.373745 -1.423908
-3.676811 0.351316 -0.643493
-2.928700 0.875353 -1.529090
-3.100172 0.409905 -1.048251
-2.992546 1.026500 -1.694559
-3.030320 1.099204 -1.804830
-3.343669 0.160157 -1.852162
-3.456877 0.070037 -1.969864
-3.138451 0.508573 -1.150820
-3.667362 0.538961 -1.600967
-4.327824 0.012486 -1.885481
-3.326472 0.349405 -1.477574
-4.400187 -0.052578 -1.953684
-3.574571 0.435065 -1.479797
-4.139783 0.285653 -1.757651
-3.303026 0.063561 -2.014650
-3.482944 0.327064 -1.325200
-3.956794 -0.407625 -1.363167
-3.313565 0.418694 -1.169018
-4.291741 -0.224230 0.160843
-3.058081 1.162545 -1.771507
-3.145635 0.921302 -1.663388
-3.047125 0.926726 -1.544861
-3.575367 0.965786 -1.574120
-3.037282 1.073015 -1.679784
-2.938721 0.164600 -1.986113
-3.102124 0.565171 -1.775042
-2.983102 0.361108 -1.907051
-3.084780 0.343030 -1.861058
-2.975578 0.360809 -1.901307
-2.998236 1.036566 -1.706131
-2.996189 1.021057 -1.699517
-3.142286 1.112603 -1.867846
-2.760093 0.466208 -1.286173
-3.089841 0.341676 -1.871208
-3.285150 1.126238 -1.756177
-3.411094 1.048170 -1.667732
-3.357232 0.522548 -1.705448
-3.589523 0.049737 -2.022376
-3.829621 0.531506 -1.843197
-3.428980 0.247142 -1.531830
-4.032396 0.308337 -1.703062
-3.904205 0.451686 -1.579998
-3.583024 0.504292 -1.433233
-3.434569 0.492002 -1.320648
-3.264114 0.346857 -1.283439
-3.003179 0.514332 -1.149795
-3.098806 0.425851 -0.995383
-3.287506 0.422933 -0.872823
-2.930899 0.472493 -1.006272
-3.109098 0.430282 -0.948285
-3.279966 0.227460 -0.915500
-3.439283 0.263966 -0.707923
-3.748937 -0.230520 -0.739822
-3.364566 0.032883 -0.889733
-3.843742 -0.368777 -0.683667
-3.843123 -0.847834 -0.493825
-2.932585 0.534883 -2.309765
-2.918854 0.540264 -2.259916
-3.028591 1.090705 -1.805025
-3.037585 1.111025 -1.841554
-3.021603 1.063554 -1.824480
-3.099565 1.074872 -1.714800
-3.204967 1.192078 -1.857339
-3.151267 0.923797 -1.671760
-3.179885 0.506671 -1.152592
-2.910992 0.493390 -1.135815
-3.576877 0.085302 -1.184272
-3.309271 0.161277 -1.099597
-3.534934 0.046504 -0.963739
-4.062770 -0.231790 -0.865024
-3.588856 0.000190 -0.970353
-3.481933 0.619236 -1.731691
-3.503308 0.594497 -1.769232
-3.368962 0.557990 -1.337196
-2.775521 1.302677 -1.885974
-2.779551 1.348840 -1.928836
-3.007463 0.114189 -2.113247
-3.043973 1.051110 -1.707042
-4.392926 0.084267 -2.085850
-4.184340 0.075988 -1.994017
-3.859791 0.722288 -1.473332
-3.631509 0.279533 -1.403829
-3.723289 -0.124054 -1.009718
-4.128633 -0.917547 -0.672285
-2.964288 0.223026 -1.918676
-3.441109 0.560238 -1.577349
-3.638531 0.752838 -1.483859
-3.226683 0.379399 -1.263079
-4.695653 -0.626971 0.519781
-3.460448 0.560667 -1.698428
-3.411168 0.487883 -1.689502
-3.974500 0.117614 -1.722350
-4.041780 0.056346 -1.786397
-3.270723 0.358417 -1.147731
-3.087810 1.096768 -1.766906
-3.574077 0.562814 -1.896693
-3.439174 0.536121 -1.452265
-3.027754 0.458655 -1.131301
-4.185090 -0.584978 -0.584358
-3.581600 0.011886 -2.107261
-3.481826 0.557631 -1.414697
-3.368636 0.095538 -0.901560
-3.018399 1.079116 -1.780439
-2.882716 0.496168 -2.091411
-3.369667 0.065724 -1.946579
-2.766706 1.288625 -1.875508
-3.079108 0.205697 -1.916568
-3.608166 0.001920 -1.636928
-3.570179 -0.643609 -0.575284
-3.395449 0.442952 -1.703992
-3.075732 0.958245 -1.577712
-3.793340 -0.041971 -2.253484
-3.175204 0.453860 -1.128813
-3.255797 1.164322 -1.822744
-3.179111 0.434433 -1.160724
-2.978881 1.383979 -2.280350
-3.033488 0.799858 -1.415678
-2.933253 0.171366 -1.969168
-3.348417 0.834566 -1.647226
-2.977976 0.363517 -1.892671
-3.046504 1.087164 -1.695761
-3.620833 0.635230 -1.841540
-3.770746 0.165542 -1.674501
-3.262794 0.576945 -1.294061
-3.747679 -0.687053 -0.817275
-4.041806 -1.020807 -0.733156
-2.794919 1.525522 -2.091984
-2.768686 1.313545 -1.899604
-2.998985 0.378038 -1.930029
-3.012069 1.056787 -1.775428
-3.009393 1.054715 -1.794185
-3.079662 1.113552 -1.771049
-3.013194 0.947783 -1.587147
-3.427928 0.084417 -2.000834
-3.529807 0.657882 -1.382898
-3.039821 0.502656 -1.145530
-2.882251 0.494007 -1.134773
-2.898308 0.466372 -1.128898
-3.068998 0.380207 -1.087330
-3.957246 -0.209815 -0.834063
-3.021144 0.464332 -0.948870
-3.536464 -0.029420 -0.823707
-4.006855 -0.410939 -0.646974
-3.005647 1.018270 -1.801684
-3.279919 1.021039 -1.650587
-3.421640 0.301694 -1.323437
-4.005097 -0.290436 -0.980428
-4.678178 -1.558601 -0.328881
-3.327510 0.553935 -1.323981
-3.768780 0.002226 -1.101184
-2.995395 1.026620 -1.698652
-3.564296 0.057888 -2.037076
-3.968073 0.463241 -1.714995
-3.079506 1.045233 -1.663392
-4.003058 -0.278325 -0.708141
-3.085675 0.502703 -1.302159
-3.096333 0.337791 -1.883024
-3.848206 0.104001 -1.760799
-3.949146 -0.781435 -0.685146
-3.067704 0.446891 -1.153768
-2.992167 1.026716 -1.670514
-3.033157 1.082701 -1.850829
-3.040611 0.462037 -0.946980
-3.375293 1.082653 -1.690606
-2.941240 0.173776 -1.966910
-2.937777 0.166575 -1.979075
-4.216471 0.513207 -2.411511
-2.952563 0.537407 -2.412749
-2.941781 0.849945 -1.055057
-2.783164 1.364963 -1.946214
-2.941083 0.488217 -1.240084
-3.305699 0.286164 -1.460574
-3.338466 0.561198 -1.328082
-3.243820 0.179152 -1.835896
-3.255659 0.230400 -1.665754
-3.016460 0.334259 -1.456716
-3.082544 0.271651 -1.039647
-3.165183 0.170503 -0.974929
-3.061323 0.991145 -1.649398
-3.114784 1.064784 -1.728473
-3.830875 0.576411 -1.752935
-2.865770 0.393281 -1.072565
-3.033338 1.064703 -1.864420
-3.030991 0.336767 -2.045200
-3.866836 0.516171 -2.120673
-2.907842 0.525310 -1.156337
-3.614648 -0.530418 -0.859043
-3.031936 1.092304 -1.811053
-3.177550 0.430690 -1.329182
-3.136500 0.418461 -0.999111
-3.728171 -0.382284 0.275190
-3.595776 0.089700 -1.146916
-3.290217 0.088331 -0.932446
-3.498627 0.256498 -1.504146
-3.007060 0.426139 -1.925070
-3.219652 0.396688 0.234200
-3.032442 0.853757 -1.738803
-3.148533 0.268376 -1.596805
-2.948351 0.471297 -0.990222
-3.020743 0.153848 -2.113248
-3.049164 1.033854 -1.709532
-2.912442 0.495688 -1.190611
-3.239996 0.961169 -1.581402
-3.490310 0.082115 -1.196179
-2.942490 0.159528 -1.995854
-3.401556 0.329988 -1.342691
-3.238303 0.417500 -0.772080
-3.051707 0.228515 -1.863590
-3.067389 0.216385 -1.896789
-3.189717 1.088586 -1.704496
-3.149732 0.430446 -0.787801
-2.713112 0.487264 -1.153512
-3.678153 0.260895 -1.637318
-3.101458 0.612696 -1.217660
-3.129899 0.900586 -1.646648
-3.246931 0.995193 -1.603154
-2.990819 0.770204 -1.396650
-3.272754 0.516751 -1.482737
-3.334523 0.400340 -0.769743
-2.990238 0.492460 -1.138907
-2.977787 0.595179 -1.754824
-3.259845 0.901487 -1.270009
-3.056141 1.163135 -1.767629
-3.362649 0.823006 -1.423109
-2.928757 0.387830 -1.759252
-2.906639 0.877990 -1.534581
-3.179324 0.954597 -1.699075
-3.377795 0.560722 -1.532732
-3.217581 1.028029 -1.683636
-2.764722 0.501850 -1.276200
-3.017378 1.061871 -1.720202
-3.048765 0.918050 -1.750395
-3.229671 0.998709 -1.618937
-3.461985 0.650652 -1.355899
-3.543128 -0.056906 -1.640133
-3.206296 1.047903 -1.670393
-3.502374 0.538592 -1.789687
-3.638743 0.550740 -1.655224
