9.600451 -2.986199 5.575085
9.222614 -1.079892 0.507646
10.389958 -2.895765 4.428421
9.458357 -2.334294 3.367357
6.423067 -2.608020 1.725846
7.783010 -2.639520 0.503931
5.880371 -1.570954 0.987911
2.724938 -0.094082 0.448268
8.024531 -2.910442 5.063450
2.731021 -0.093588 0.450067
7.488661 -0.287086 1.568570
6.903778 -2.989440 1.823338
7.594281 -2.362245 1.161398
8.702807 -1.981985 3.206146
9.112557 -2.278776 3.629386
5.024917 -2.041248 0.277285
7.840561 -0.447438 1.544280
10.726419 -2.864801 0.118428
6.475424 -1.846643 0.131835
3.049600 -0.716342 0.515673
8.121839 -1.801315 2.947352
2.932039 0.658251 -0.851705
4.093576 -0.278204 1.006182
7.345925 -1.624558 1.974695
8.570261 -2.270714 4.413830
10.303023 -2.209103 3.285962
9.067128 -2.037641 2.911137
8.045668 -2.928304 0.836785
6.509404 -2.450101 1.566666
4.454524 -1.356319 0.874694
9.690744 -1.766734 5.047437
15.483493 -7.149129 12.693828
2.810661 0.285366 1.057140
11.242386 -4.254589 2.995479
12.759136 -4.703207 4.761254
9.608721 -3.219370 6.104286
12.024906 -4.104895 1.924900
13.963492 -4.992242 4.767931
10.623360 -2.535207 3.744584
8.970113 -2.969539 1.279566
8.008508 -1.273440 2.653002
11.897651 -4.061125 1.861225
13.306725 -3.891713 4.558177
11.081799 -3.597357 6.149353
11.652111 -2.624767 4.492213
13.414006 -4.245802 6.236234
11.739060 -4.170598 4.205479
9.550863 -3.104673 1.618630
13.663053 -4.779582 2.005370
13.261413 -4.062529 4.930586
12.720550 -6.200199 8.856796
9.580235 -2.924235 4.818857
12.403701 -4.003546 5.010555
10.745761 -3.136546 0.820246
11.291737 -3.931676 3.957616
21.797050 -2.823986 -0.416641
10.172683 -3.131560 1.180841
7.649303 -0.826148 1.211122
16.566933 -5.365966 7.202233
8.346181 -1.851608 2.229319
14.465728 -4.341913 5.800840
17.645716 -5.149090 5.478894
16.872499 -5.266341 4.182629
13.144050 -3.572890 7.126634
12.502975 -4.172136 4.479774
16.302095 -5.058383 3.470902
10.866870 -3.194863 0.817314
13.837234 -4.720993 4.930943
8.636820 -1.752399 -1.154227
10.467148 -4.281315 3.988105
11.768171 -5.429792 7.329143
14.065014 -4.868394 3.691975
10.555534 -4.748934 6.400849
15.973941 -4.788860 8.552595
18.645081 -5.951312 3.932570
11.300986 -3.646115 6.312370
11.747816 -5.691373 7.748752
11.906825 -3.721690 1.007206
13.645109 -4.088033 6.516099
24.842886 -7.275963 12.831077
12.398682 -6.063089 8.095545
10.106394 -2.914219 3.701145
20.004999 -6.749771 7.779083
24.472889 -7.065650 9.554099
11.874226 -3.936790 6.790274
15.708043 -5.903679 6.666570
12.483080 -4.803623 4.569458
13.577037 -4.812394 4.584727
20.829506 -7.163375 8.127009
13.677724 -4.055324 0.377885
11.936663 2.056618 -8.452838
29.761703 -9.670437 12.033281
15.236379 -2.757150 6.338821
9.557468 -0.473268 0.377532
24.833849 -8.557213 5.683978
42.446373 -12.514404 2.314025
44.051922 -13.011124 2.529114
25.064137 -6.694981 9.016580
3.649422 -0.264628 -0.240977
10.829263 -3.998503 7.334115
14.098306 -2.496402 5.765731
5.845918 -2.211819 2.595144
7.749831 -1.131794 2.095622
19.417927 -5.429011 5.501161
7.479086 -1.664405 2.022652
17.666555 -6.383830 5.852222
34.382187 -9.663293 12.667999
30.551855 -8.452812 1.655255
12.770119 -3.296810 5.477828
70.843315 -14.708313 8.458429
27.186710 -9.352054 7.484210
11.534817 -4.370842 3.806301
13.608662 -3.462865 5.417675
66.504166 -13.709926 7.931999
14.743719 -5.057992 4.477853
26.257923 -8.494919 8.097966
7.564251 -0.324524 2.550658
7.615358 -1.283531 2.166542
7.517285 -0.931573 2.007379
7.672782 -0.160198 2.215310
7.510836 -0.156183 2.653435
7.343138 -1.016032 1.900941
7.509836 -0.093618 2.681844
7.505954 -1.003899 2.007958
12.372554 3.107135 -5.323878
17.293911 -5.651173 7.885955
18.238194 -4.216342 6.685179
12.407770 -4.281425 2.029414
14.382955 -3.934195 6.477964
16.128710 -6.031001 5.733261
14.637314 -4.293843 6.497991
17.057692 -5.323152 7.009076
14.839883 -3.736991 5.311645
14.085621 -4.446063 5.355334
12.731073 -3.048443 5.045704
13.201166 -3.693865 5.078383
4.657485 -1.729928 0.171163
14.844990 -5.367829 5.643614
14.004099 -3.733587 6.272047
9.285018 -2.885101 5.893513
11.843093 -3.470139 6.013973
10.525490 -3.839716 3.285481
13.783086 -3.277025 5.078934
12.803691 -3.698056 6.282507
13.049636 -4.842758 4.121986
10.056830 -2.818702 0.681746
10.903667 -3.048004 5.359884
12.675104 -4.675965 6.929966
12.006446 -3.330323 0.191877
11.169163 -5.056569 6.835647
12.923896 -4.527356 6.849071
31.387451 -12.730223 15.419276
9.642890 -2.719751 5.303699
23.652191 -6.819573 9.570845
17.216717 -5.568056 7.910620
10.889984 -4.040613 7.373231
5.655249 -1.539911 0.513627
11.605490 -1.705841 0.200258
27.922779 -11.100284 13.521031
11.326372 -3.024049 0.126842
13.627897 -4.646173 2.872889
13.029155 -5.472312 4.975194
15.951366 -4.222455 6.834590
13.210101 -2.659663 3.515446
14.391785 -3.840826 6.444865
14.710643 -5.772606 8.324390
15.892213 -3.998404 7.432148
12.110579 -5.815586 7.701855
10.836718 -3.365593 1.277599
4.465393 -1.366314 0.795853
7.997016 -0.029940 2.067032
7.460044 -0.153923 2.630947
7.224319 -0.997895 1.867934
7.692230 -0.630473 2.130612
7.286529 -0.150921 2.548563
7.500793 0.008746 2.763891
7.397093 -0.159387 2.551814
7.455759 -1.059737 1.989009
8.009959 -1.069914 1.770291
12.154667 -3.607577 6.231799
15.187598 -4.759897 6.608246
27.352549 -5.461553 6.843781
18.104837 -4.968791 8.006347
12.544333 -4.955709 4.525417
13.035629 -3.638050 4.931930
14.918525 -7.562353 10.012966
13.228515 -5.069162 7.938499
16.726974 -5.566830 6.707349
11.515516 -2.751594 4.779989
16.058954 -6.585572 4.901724
14.683699 -4.661723 0.765485
12.614491 -5.053778 4.317915
13.313128 -4.686636 4.189270
12.822350 -5.478024 10.152734
18.241365 -6.567367 6.768848
19.451704 -5.312657 7.431830
10.828012 -4.041338 7.241437
12.675808 -3.531790 6.379060
15.493647 -4.817719 6.614855
5.414052 -1.600137 1.229349
10.826305 -2.371930 4.810962
19.033369 -3.972230 6.036901
21.004400 -6.981401 12.024237
28.184948 -8.288583 13.225340
17.735432 -5.602232 9.811152
13.843866 -4.081320 6.106246
7.667442 -1.083302 2.005851
7.601099 -1.629730 2.022283
7.188644 -0.904528 1.624113
7.659951 -0.956952 1.726127
13.698164 -5.583118 5.182171
11.430202 -5.989933 7.208970
15.104509 -5.224128 4.756097
5.193967 -1.216227 -0.612477
26.009550 -8.172050 6.450101
13.290906 -3.475599 5.752375
28.406422 -11.217666 11.308176
28.094864 -9.700326 7.875995
17.384102 -6.429909 5.029117
7.325338 -0.448936 2.385089
13.509319 -4.294532 5.522429
14.427486 -4.833817 4.941986
17.302668 -5.539965 6.495617
20.259064 -7.547604 7.559681
16.303343 -6.089089 6.408161
23.354212 -7.792422 7.347425
13.701500 -5.017363 7.972730
9.145398 -2.999938 2.101701
13.132897 -4.778678 4.943817
7.442914 -3.002146 2.744964
12.575716 -3.669688 0.278232
7.853143 -2.405127 1.678442
14.646699 -4.192632 6.561179
13.363176 -4.004022 6.244233
12.684309 -4.258913 1.451151
13.885117 -4.858400 1.938830
15.512691 -5.764268 5.506149
11.760435 -2.127936 7.185141
16.896349 -5.103181 8.206598
7.510557 -0.037299 -0.020916
7.640026 -0.978958 2.000676
7.444052 -0.353886 2.042664
13.148296 -4.213001 4.353753
13.412222 -3.805264 4.660402
7.493330 -0.848962 2.040189
7.136748 -1.015323 1.857983
14.369016 -5.141030 5.419702
16.047663 -4.478643 6.679917
15.123447 -5.659690 4.951769
22.802811 -4.552062 1.592159
12.180490 -6.295519 5.225295
8.731211 -3.533560 3.289558
13.669313 -4.874674 4.288478
11.381870 -3.463748 2.077225
11.157316 -2.864474 4.412310
10.776849 -2.982268 5.343393
12.045311 -3.552353 1.835515
15.276050 -6.177241 9.509116
7.803322 -0.270180 -0.018454
13.237414 -1.617504 1.187928
8.433784 -3.189365 2.969669
10.283827 -2.760290 4.983769
13.083882 -3.279118 5.667322
11.184019 -4.852913 6.948359
7.880313 -2.257724 0.895513
31.547670 -8.462774 11.555825
14.635677 -4.491398 5.239994
23.263584 -1.654004 0.414126
15.878446 -0.930655 0.281407
186.974335 -11.767437 -6.566641
22.069447 -4.980813 7.626205
11.321721 -4.094336 3.944486
9.200056 -3.052192 2.657212
10.296283 -3.619237 3.371854
8.769377 -4.556063 9.372033
10.544565 -2.946357 6.127340
12.653609 -3.718592 4.803767
8.786182 -5.652403 11.803822
8.723480 -3.270479 7.542124
118.151024 -31.503441 19.233604
8.491750 -4.139846 8.955445
8.756191 -5.597860 11.707340
8.658508 -4.449790 7.052289
40.415100 -9.990754 8.846352
8.671924 -1.135529 3.516916
7.920950 -0.865464 1.662526
7.596841 -1.018817 1.571085
8.758224 -4.203189 9.214454
8.627681 -5.075384 11.604673
9.344747 -5.185374 10.580186
8.094000 -4.248620 9.469508
29.319910 -8.081810 10.718947
7.656991 -1.287987 2.186684
16.106171 -4.024480 7.737468
34.527100 -9.002571 10.502688
54.683323 -17.990162 18.321026
34.687347 -10.297170 8.754844
7.556349 -0.721702 2.173819
35.081440 -6.618007 3.605870
7.622428 -0.128474 2.031002
47.610554 -12.869295 14.768039
8.394094 -4.279266 6.916549
10.369984 -3.809940 3.123117
10.766735 -3.467602 6.876222
46.314003 -11.625049 10.636555
8.095748 -1.298364 1.674685
31.629004 -10.195807 8.208508
30.183210 -0.958264 -1.399651
36.256977 -6.867745 5.238811
29.469587 -7.927900 0.994655
36.155899 -11.632530 7.173977
53.221474 -9.265241 20.213964
167.986221 -26.561466 19.927916
7.713230 -1.238510 2.268764
31.038807 -3.206569 1.378736
33.489964 -10.811614 7.137938
13.212912 -4.951228 7.376953
11.082484 -2.263305 2.265668
9.896111 -2.651515 5.422690
30.154776 -8.174181 9.326107
18.083847 -4.916492 4.618942
8.151555 -2.553012 -0.012742
7.192821 -0.477228 2.736893
7.374638 -0.677963 2.214484
7.446845 -1.510475 2.007802
13.487571 -5.034763 4.334929
14.305079 -5.420568 5.560849
14.240497 -5.460334 4.677391
11.259702 -2.509145 4.137201
7.935702 0.186443 -0.354242
27.493910 -8.363313 5.282604
14.539825 -2.389640 5.253819
9.214496 -0.996939 2.002138
13.258207 -3.606325 5.034281
14.242172 -5.345782 5.536119
10.129842 -3.684535 3.143322
12.250865 -3.331759 0.289163
6.281375 -2.232046 1.685422
13.849489 -4.393538 5.705966
11.869644 -3.813553 4.159263
12.822769 -4.440424 6.831039
10.917198 -4.167915 2.975191
11.346710 -3.530658 3.491605
7.647633 -0.754835 2.431681
7.577385 -1.772289 2.156639
16.044691 -2.915262 6.765092
26.462339 -4.978011 4.720255
15.979052 -3.267366 5.149284
9.544305 -2.313447 1.118981
14.484829 -2.940013 3.455631
8.149671 -3.831146 8.876247
6.701594 -4.005793 6.980581
10.157802 -2.989254 2.721385
9.580823 -2.117787 3.263837
9.017722 -2.652373 2.431263
16.651670 -3.052997 7.038010
7.467866 -0.318750 2.565424
7.459348 -0.679285 2.229295
8.275739 -1.705722 3.072437
21.811388 -4.063302 8.886685
25.843428 -7.242788 7.767375
18.276640 -4.137402 6.158732
19.926344 -5.469573 3.399131
8.476559 -5.246636 11.209270
24.783371 -6.833862 7.366611
8.933817 -2.452323 5.561374
8.875369 -1.167560 3.030668
8.280749 -4.739641 10.939528
9.033288 -1.516142 3.639980
7.818683 0.171238 1.009965
12.036889 -3.561211 5.145435
8.596784 -2.154912 0.710899
8.595396 -4.884402 10.353081
7.852064 -3.273558 7.568220
8.165955 -3.847764 8.889424
8.149060 -4.713777 10.901444
8.593825 -2.607514 1.943385
9.574869 -2.544850 4.882699
13.745372 -2.250108 4.942309
18.868206 -7.689662 10.246903
13.758956 -4.352337 5.742353
16.861824 -5.830049 5.935572
14.108737 -3.244750 5.681279
20.664587 -6.618531 5.344723
13.999720 -4.642010 4.165382
10.920705 -3.785926 7.417712
9.932152 -3.885360 3.632386
9.591821 -5.051997 9.472619
9.342758 -4.391797 6.342370
9.699456 -5.440389 8.239620
9.411922 -4.091123 8.823254
14.709928 -3.490021 4.953957
16.885847 -4.331174 2.660636
10.348157 -4.013916 7.137581
8.913388 -4.865743 7.533576
6.982395 -0.029359 2.731425
6.798176 -1.571370 1.964555
7.190962 -2.656144 2.275256
23.261465 -6.999350 5.598947
11.377274 -3.310655 5.962245
28.176254 -8.913404 7.032276
12.459832 -3.765543 0.512938
15.203472 -1.480127 0.709252
12.364450 -3.610435 1.951208
7.565071 -0.652634 2.227649
26.770103 -8.946093 7.351371
224.428375 -23.213850 5.385242
7.381167 0.095003 2.197281
328.905426 -90.199600 72.619049
13.697241 -4.197670 4.460340
13.333735 -5.256756 5.058403
15.624203 -5.265323 5.195307
14.363022 -4.898157 3.866856
7.337177 -0.547502 1.899803
15.437184 -4.939379 6.162642
12.910194 -3.363225 5.902844
37.005959 -10.654238 14.004441
28.990452 -9.180862 6.023502
25.087042 -9.435274 7.339708
29.560917 -7.683621 11.565519
18.880796 -4.588313 8.109756
18.012814 -3.399998 7.760341
8.115448 -0.471392 3.486863
8.174681 0.365896 2.620339
8.160292 -1.394517 1.676435
7.433453 -1.050443 1.863571
16.911005 -2.817039 6.150454
8.109428 -0.481889 3.484855
8.132215 -1.391096 1.673773
19.981873 -7.575992 7.078066
20.643539 -3.949623 8.977129
7.422588 -1.576887 1.961245
22.487289 -6.582187 6.419564
29.077354 -7.507182 11.275764
8.871373 -3.691459 8.269622
17.165760 -1.638918 5.157293
37.615307 -9.712550 8.856896
16.997303 4.183331 -6.526495
7.798454 -1.615171 2.132034
9.725475 -2.840546 1.135351
21.182911 -4.187866 4.645179
8.530022 -6.154288 11.297432
8.682981 -4.607305 7.329200
9.103135 -3.751677 3.549383
30.979265 -10.509891 9.824475
16.729263 -3.030452 6.672163
8.213394 -1.013740 1.605144
7.751641 -1.238876 1.583785
6.404450 -1.322544 1.247729
8.227577 -4.132303 6.631855
13.346181 -3.913883 1.796799
21.242495 -4.091334 10.247663
10.116994 -4.103010 2.960076
12.404856 -3.393858 4.116383
8.387623 -4.294836 6.872811
11.451901 -3.355946 1.765214
10.766412 -2.688199 3.696414
14.870432 -2.296432 6.338631
19.457186 -5.853650 0.973832
12.941295 -4.010906 3.216776
10.522585 -3.607945 3.450587
6.594746 -3.302113 6.408068
7.599254 -1.280503 3.852907
10.098514 -0.976219 0.161073
7.004463 -0.345249 2.117886
10.928992 -0.819170 -0.258279
11.644050 -0.923348 -0.074629
6.754136 -0.906240 0.211379
6.713011 -1.091144 0.910844
7.776116 -0.908025 1.951506
12.231101 -0.915938 0.259713
6.728476 -1.105867 0.918290
6.736254 -0.823231 0.125431
16.487288 -2.954431 6.564524
7.461004 -3.122744 5.365382
8.108826 -2.723536 3.986449
6.786417 -0.806559 0.178555
6.784454 -0.813070 0.119055
7.364295 -2.517004 5.584149
6.637961 -0.548625 -0.298404
12.647979 0.957861 1.787460
6.552126 -1.006663 -0.228311
6.411417 -1.579892 1.901393
11.599240 -1.514562 0.015053
12.260387 -1.775556 -0.267716
6.933795 -0.987213 0.874328
10.856154 0.958138 1.322793
6.680378 -3.755058 6.505544
6.862999 -1.222052 1.002022
7.152258 -2.209903 2.804845
7.848959 -4.740734 10.561730
7.755484 -2.365336 6.107288
8.918227 -1.175239 2.601267
20.902687 -2.712974 2.401936
19.795914 -2.474117 2.208302
7.536146 -1.377752 0.562710
7.997200 -1.612929 3.818380
11.408794 0.128957 2.643545
6.800653 -1.407484 1.527190
32.730541 -10.722383 8.518133
14.143027 -4.765729 4.263737
43.686028 -8.158961 14.254753
7.511685 -1.282337 2.120560
11.649912 0.105099 2.703584
11.654496 -3.903128 4.247348
21.284662 -5.927302 6.617872
18.402769 -4.182292 6.180140
8.804613 -2.189105 1.048406
20.605902 -6.379709 6.377932
8.641410 -3.865298 8.665634
12.373822 -4.367799 3.847693
14.649836 -2.325726 6.203629
9.058460 -3.143743 3.030246
7.833491 0.327717 2.494151
46.773502 -13.353655 11.720232
47.954632 -13.921852 12.001687
7.445749 -0.613858 2.798553
7.383141 -0.891839 1.964409
316.514648 -11.052025 -25.123888
33.612907 -9.660876 13.071471
44.796242 -13.062332 11.171052
7.686924 -1.796581 2.234757
48.332802 -15.571872 16.189474
14.494775 -3.501259 5.597373
15.709224 -5.149675 5.862272
167.091049 -36.212879 18.655352
14.764866 -4.416147 5.377883
7.472199 -0.733641 2.355093
195.414169 -52.906281 33.548920
7.612982 -0.118263 2.890753
46.365566 -11.068330 11.460466
37.420815 -10.463318 9.133494
34.173515 -9.398231 12.162496
103.994713 -22.434359 17.676300
11.612876 -3.923061 4.226243
8.132253 -1.255304 1.824695
7.486472 -1.044359 1.928571
8.823734 -4.457971 8.992668
8.056309 -3.483934 6.909317
8.137529 -1.784054 2.933671
8.793875 -5.888657 11.179775
8.150685 -4.100426 9.381275
8.810212 -6.106498 11.314102
11.267177 -2.589047 4.534359
8.475203 -5.248174 11.164647
6.665036 -3.960789 6.785131
6.094595 -1.248399 1.384185
19.228544 -3.840206 8.740508
7.562852 -2.360021 6.064818
6.232895 -3.069448 5.115716
7.654128 -2.773850 6.258228
6.617422 -3.906940 6.809281
7.481050 -0.445355 2.497236
7.162458 -1.093394 0.017457
32.296391 5.615577 -10.379686
7.577430 -1.264971 2.156944
38.067257 -9.297776 8.587497
53.138592 -12.084932 15.163568
7.557047 -1.613326 2.005143
44.933537 -9.683769 12.595464
68.263130 -18.413193 16.649111
7.453940 -0.219730 2.068829
9.203273 -2.177801 2.390522
6.865429 -4.129266 7.082253
8.359010 0.115610 1.299649
9.636571 -2.357292 1.141132
9.358476 -2.866894 2.932104
8.137075 -1.066713 2.977625
7.256696 -1.018915 -0.198805
9.328362 -2.511166 4.591238
6.707656 -3.906289 6.792956
7.176984 -0.373247 2.913134
7.830122 -2.587527 6.564879
13.951698 -2.380092 3.387696
8.432354 -1.968711 4.509809
14.095345 -3.118649 2.061221
14.042315 -3.086369 2.043678
7.421007 -2.961419 5.134994
7.979731 -2.502834 3.715104
6.251709 -3.122394 5.206463
11.754270 -0.376970 1.134123
7.369084 -2.459503 5.742025
7.345803 -1.956702 5.316379
6.862317 -4.747318 7.956224
6.515482 -4.028438 6.859994
5.915193 -3.855337 6.822926
7.299908 -0.308621 2.428127
7.452390 -0.324840 2.496351
8.998610 -1.997728 0.920713
9.383967 -2.223583 1.052216
7.760198 -1.418969 0.755828
7.737558 -3.599437 8.192026
7.435458 -2.008961 5.421566
7.282733 -1.625352 1.231106
17.947992 -3.280543 7.210789
6.707628 -4.009225 6.834162
7.952951 -2.209276 1.814350
16.103460 -4.628055 3.884775
11.757448 -1.586780 0.126629
6.563519 -2.192804 2.844269
10.101626 -0.742515 -0.204298
12.527224 -1.870867 0.061390
6.492033 -3.939975 6.698412
6.583726 -4.428496 7.523126
10.624219 -3.334756 2.782904
7.406316 -2.222180 5.773042
11.390406 -3.671974 4.143643
11.667031 -3.866364 4.325076
6.395252 -4.844393 8.212287
7.215907 -1.955148 5.312708
8.423093 -5.367339 9.661189
10.918611 -1.260827 -0.010886
9.700194 -2.901150 3.428579
7.776126 -3.542115 5.895114
9.838653 -2.690966 2.689823
6.785389 -4.513611 7.610137
6.788786 -4.524524 7.633597
7.385744 -2.705830 5.865203
7.410867 -2.741598 5.879662
7.459883 -3.345248 7.321168
25.376150 -8.986187 9.065151
10.752363 -3.244321 3.769428
7.025512 -1.635404 4.549472
6.818317 -4.354547 7.265474
10.940836 -1.250404 0.102953
45.535351 -15.214613 12.987260
368.642639 -133.630066 196.378906
6.167649 -3.142693 5.216387
15.897067 -4.264916 6.839697
6.498576 -3.533551 6.224895
6.492139 -3.520495 6.198694
6.340911 -0.794879 1.484212
7.385608 -1.768113 4.898610
6.689100 -3.815433 6.592373
6.285785 -3.579283 6.323021
6.301439 -3.871688 6.787481
6.186025 -3.928303 6.815004
6.186945 -3.998698 6.783655
5.687871 -0.043630 1.036695
11.652574 -4.390215 -5.021185
6.387417 -1.667707 0.811496
8.150968 -1.654256 -1.568958
8.290363 -1.750432 -1.659637
15.970230 -10.750019 3.748880
10.629817 5.069064 -5.790133
26.960567 10.472238 -16.175676
5.611163 -2.277702 4.621267
11.389637 -5.968511 5.263980
8.421375 -3.157651 -1.106116
6.381752 -2.503953 1.771366
55.070732 26.499125 -42.583870
6.225687 -3.136771 5.729701
6.239760 -4.363284 7.353111
6.554186 -3.817853 6.528933
6.940170 -1.523007 4.402187
7.173388 -2.610281 6.290139
54.331985 22.671873 -38.145523
6.158911 -3.544420 6.271375
46.115700 19.044630 -31.367781
6.166342 -3.607729 6.353370
6.110194 -3.816595 6.532424
41.295464 16.834381 -27.707197
9.242313 -12.144974 7.813205
30.734406 -7.393329 4.479548
6.056362 -3.101723 5.180441
6.976728 -1.980335 4.528845
9.134536 -1.554827 3.322725
7.442761 -0.588571 2.042025
6.633320 -3.928576 6.762144
5.731723 -1.653367 3.157607
5.817337 -2.452417 2.970261
6.152584 -3.555849 6.325606
42.026031 16.921917 -28.639330
5.763554 -1.785624 2.758517
6.642791 -3.723532 6.448045
6.627850 -1.992468 1.371918
12.217388 3.491660 -4.681364
10.560155 -1.504251 0.354839
6.138431 -2.804347 5.226851
6.554408 -3.511460 6.247318
6.608417 -3.633182 6.412475
11.563649 -2.329107 -0.117177
5.797825 -2.443113 2.955561
7.893734 -3.400337 3.352793
6.141194 -2.774153 2.682268
5.853056 -2.390166 4.620078
6.076089 -3.037588 5.609025
10.913800 3.734730 -4.544681
6.092339 -2.501978 2.521147
6.374758 -3.343224 5.911485
13.559253 5.200788 -7.424286
13.863971 5.361999 -7.652670
12.766725 -3.756280 5.043427
6.601384 -4.131836 7.094009
6.745640 -4.452847 7.382665
7.201175 -1.852632 5.059209
7.441135 -3.106595 5.344323
9.823501 -2.798394 2.745420
11.757646 -3.420772 4.345474
8.650094 -2.091366 2.194353
12.876073 -2.998946 2.771981
7.252757 -2.414403 5.881952
7.276326 -2.737725 6.368654
7.274796 -10.143298 16.689203
7.715803 -4.900387 10.301065
9.103399 -0.442171 -0.322769
5.998435 0.458492 -0.236275
9.905489 -0.845486 -0.038251
12.657121 -3.295124 2.724406
6.614738 0.224075 -0.598973
6.419375 -1.998242 2.720301
7.927884 -1.982622 2.059351
7.444167 -3.196009 5.452908
8.529313 -11.963057 21.198151
6.489169 -1.724038 2.142923
6.607860 -0.499161 2.346844
10.135934 -2.540253 2.350221
9.521026 -0.261748 -0.056007
6.202395 0.377771 -0.392606
6.490252 -1.722984 2.145297
7.184842 -2.261625 3.034560
33.078114 -7.356304 4.306790
6.932800 -4.660360 7.664650
6.697099 -0.339520 -0.740683
7.129460 -2.201087 5.502376
7.691296 -2.363375 2.534702
8.827079 -0.185402 -0.308833
7.028609 -1.410265 1.134000
7.794797 -2.492260 2.630659
8.355938 -1.676242 1.741407
8.595263 -0.456501 -0.276491
7.713593 -0.913306 -0.358135
7.524933 -2.788080 3.515132
5.830631 -3.127342 5.559368
7.158422 -2.404257 5.090127
6.370288 -4.307251 7.408046
7.014560 -2.289732 5.583373
5.639238 -1.449648 3.501682
17.812422 -5.314780 10.477745
19.179398 -5.956703 10.687143
6.848775 -0.923764 3.258584
6.996899 -2.074468 4.179942
12.436178 -3.622428 4.849503
6.493662 -4.227839 7.203646
5.750305 -3.050682 5.592711
6.914479 -1.866976 4.160847
6.579376 -3.591722 3.325631
10.982383 -0.850390 -5.136735
5.752495 -3.061396 5.603764
18.300995 -7.120961 11.979221
6.141922 -5.514616 9.197025
6.250544 -2.725077 5.053064
37.258926 -17.690811 29.236137
6.034276 -4.767543 8.086913
5.752654 -3.060800 5.600939
23.990023 -10.440770 17.004213
8.775641 -3.143991 4.762433
8.937547 -2.334909 2.341897
12.782494 -2.847379 4.972122
15.255055 -5.357240 9.232971
10.106753 -7.887380 2.597395
5.766923 -4.153296 7.655799
9.735153 -2.853620 3.025390
11.771265 -4.017203 5.732582
11.535929 -2.449618 2.339407
6.988894 -1.928794 5.044028
6.029773 -5.556981 9.157177
7.474241 -1.299728 3.320675
11.401921 -3.661307 5.248214
5.741188 -5.824567 9.597111
7.279944 -1.669391 1.813527
9.566997 -2.720306 2.926703
12.381373 -4.463127 6.239157
6.259432 -3.149076 5.267828
6.481483 -4.938591 8.043926
36.539677 -142.718018 254.189774
10.911497 -3.287546 4.851330
5.698760 -5.827860 9.646745
5.825346 -5.647491 9.355634
9.669282 -3.033701 3.624928
6.364740 -1.901348 2.677897
8.357973 -2.139576 2.560302
9.388702 -3.290515 3.543249
5.997221 -3.768049 6.006821
6.280161 -3.249214 5.397351
40.279289 -185.562653 323.171387
7.811131 -5.154382 9.129061
11.235582 -3.142288 4.049664
7.617339 -4.454611 9.643323
7.813055 -2.123239 2.450710
12.648074 -3.628025 3.125579
16.118719 -66.334122 115.071533
6.474217 -1.911352 2.690537
7.302718 -1.696346 1.828700
7.038779 -1.445061 1.479696
9.640737 -2.779400 2.970572
9.652647 -3.012042 3.601963
6.351216 -5.052850 8.407854
6.928331 -1.383267 1.145811
9.200344 -2.889049 3.198339
9.471572 -2.638021 2.864447
7.911876 -9.677281 18.732241
12.582134 -44.344090 77.431984
7.121939 -2.748768 6.547554
9.914779 -1.384409 3.880154
7.100770 -2.283741 5.176301
5.775625 -4.683027 7.875158
7.448018 -7.632089 14.584968
6.251440 -1.212915 1.149186
14.565861 6.065741 -8.638423
7.894827 -2.614008 3.742798
13.093012 -1.940305 7.779874
9.466673 -4.159229 5.238719
6.943612 -1.362368 1.368113
7.670506 -35.549904 61.194023
7.647203 -1.497568 3.564467
7.426466 -3.672555 7.607847
10.946331 -2.173373 1.774154
6.142572 -6.024406 9.634764
99.899460 -601.153625 1031.289185
6.405445 -1.696082 2.146908
12.454985 -3.528501 3.082614
6.483234 -2.218445 2.959029
6.712505 -1.310222 4.078156
15.072925 4.864355 -6.964591
6.095133 -1.724870 2.044435
6.497707 -2.021438 2.808628
6.413931 -1.822582 2.640442
7.224800 -1.603928 4.571542
8.376147 -2.155672 2.571499
7.836062 -2.988117 3.066866
24.361408 -5.429751 5.785275
14.071520 -2.813664 7.090028
6.374092 -2.256074 2.288219
7.952410 -0.277674 2.879765
7.805961 -9.197416 16.342272
6.913949 -0.887665 3.085837
6.697084 -3.574430 6.589495
5.756169 -4.408208 7.488952
11.842278 -2.164261 1.784286
46.917614 -235.044876 413.240387
7.360013 -0.057618 2.318557
6.935840 -1.975871 2.274845
7.111325 -2.193029 2.561499
6.047745 -4.142555 6.460901
6.738634 -2.820223 6.383655
5.773581 -5.621789 9.099786
6.390146 -1.704389 2.168928
7.337808 -0.704659 -0.094255
8.404116 -0.685989 -0.042653
3.494529 -0.074250 0.761035
3.433287 0.431355 1.126977
2.600911 0.321669 0.520618
2.489634 0.116302 0.187923
3.607988 -0.131142 0.979974
2.702745 0.199827 -0.857361
2.190037 0.576049 0.126689
2.197973 0.592034 0.176502
3.422474 0.432109 1.090920
3.170305 0.460286 0.689448
3.901048 0.715564 1.161224
3.248548 0.144860 0.647544
2.193099 0.572878 0.134403
2.773785 0.153712 0.400847
2.550107 0.588997 0.150267
2.238031 0.552599 0.279801
2.495443 0.056219 0.185960
2.561944 0.392128 0.442651
3.319240 -0.045283 0.679501
3.309433 0.152126 0.772550
3.355395 0.173432 0.846306
3.352481 -0.820379 0.255245
3.571048 -0.358709 0.957405
2.499633 -0.029976 0.051315
2.905966 0.367942 0.720138
3.110429 0.430320 0.819068
2.523669 0.323503 0.286668
3.246637 -0.170051 0.616463
7.303611 -0.459726 2.395823
2.947192 -0.209769 0.639532
