8.047605 -3.963012 7.019998
7.738509 -3.309957 6.034167
33.722496 -4.223748 2.314159
41.769485 -11.350801 11.664083
26.580275 -7.146760 9.393824
25.980942 0.588836 -2.934066
7.334311 -1.201283 1.937002
26.181515 -8.129077 6.142153
27.215046 -6.987595 10.005537
10.459958 -1.791934 2.758799
13.997111 -5.600962 5.178257
22.559902 -3.121475 2.298281
9.139353 -1.131515 3.685268
11.958049 -0.335683 0.692384
12.581264 0.742633 1.427748
8.757681 -0.891802 2.956085
7.119930 -1.717378 2.078285
8.050929 -1.002283 2.300658
12.252368 -0.332535 0.948005
7.578032 -2.929590 5.063512
11.155679 -0.234458 0.600683
10.745449 -2.020623 1.276109
10.284670 -1.978505 0.987914
10.580267 -1.324026 1.398533
9.527111 -0.598908 -0.831840
10.302345 -1.993364 0.990553
9.493408 -0.391322 -2.050157
10.372073 -2.043174 1.022827
9.222374 -1.582001 -4.934960
9.326651 -1.391265 3.148161
9.802213 -1.466666 2.807187
8.094878 -1.738524 4.320881
8.012846 -1.901702 3.832357
12.741144 -1.086672 -0.291293
9.641904 -1.765404 2.413120
9.764497 -1.047745 2.934311
10.798808 -1.456939 1.534426
12.154835 -0.798910 1.697082
10.008121 -0.987734 2.461266
9.708538 -1.011162 2.510642
9.706263 -1.643211 1.876190
8.232763 -2.120784 2.395002
10.426643 -1.884606 1.194069
10.146763 -1.965549 0.947296
9.790183 -1.678585 2.409633
10.789629 -1.246457 3.915318
11.809855 -1.221763 2.399923
8.161662 -2.512757 3.285900
9.686352 -1.971076 1.059797
10.293933 -1.808149 1.155066
8.303265 -2.008893 2.743704
8.148746 -1.441089 4.445356
9.374675 -2.014817 2.099323
9.697167 -1.617504 2.347543
9.072362 -2.032356 1.807956
13.375352 -1.030388 0.181355
10.315804 -1.501611 2.475140
8.996528 -1.126192 3.428242
10.142097 -1.716186 1.102575
7.918290 -1.538355 4.528967
9.194847 -1.853484 1.973042
9.162088 -1.117654 3.193056
9.488060 -1.658244 2.278730
9.210939 -1.888106 1.484637
9.872116 -1.260489 1.589524
13.203695 -0.497132 0.525356
8.153154 -2.431134 3.221221
7.259490 -2.069647 4.310429
15.129508 0.772566 -1.472180
14.838888 0.193279 -0.620800
7.189002 -2.101551 4.021685
10.797696 -1.506200 3.699440
8.721173 -2.126980 5.662910
8.472418 -1.093832 3.479996
9.567864 -1.167341 2.868576
8.711782 -1.265927 3.751031
8.730596 -1.491759 4.423097
8.926044 -2.233533 2.489605
8.196876 -1.750108 4.702957
9.877359 -1.515223 1.031461
8.941721 -1.705132 2.933990
8.773806 -1.318044 3.823693
8.265342 -1.878749 4.732760
8.842976 -1.372160 3.915411
12.764302 -1.605962 -0.034990
13.001441 -1.063245 -0.103423
8.859409 -0.623518 2.101315
8.847835 -1.156410 -0.338309
8.202192 -1.433780 -0.040137
8.893835 -1.821696 3.264391
13.834469 -2.003049 0.005479
8.819940 -1.357871 3.872986
8.788275 -2.420721 4.216664
8.446453 -1.481010 1.486511
7.760890 -3.021672 5.639422
13.525164 -1.457437 -0.237438
8.953435 -0.904187 2.510052
9.422143 -1.216956 2.414258
9.953075 -1.801175 1.994321
9.314780 -2.042392 2.775912
7.811591 -3.104327 5.732364
13.372501 -2.245313 1.394617
11.640851 -2.469090 1.244488
7.624344 -0.182555 -0.145174
8.714419 -0.915146 0.670892
7.670014 -0.144742 1.996663
10.427712 -0.132793 0.023567
11.704721 -0.614486 0.271365
10.683589 -1.752438 0.907292
11.534035 -1.437351 0.439746
11.704721 -0.614486 0.271365
10.170172 -1.024748 -0.050120
7.465134 0.405371 -0.198366
7.480970 0.400067 -0.209048
7.340102 0.431657 -0.040259
10.683589 -1.752438 0.907292
11.482836 -1.022429 0.223509
8.729277 -0.921769 0.677548
7.331535 0.458313 -0.034117
7.102865 -0.331192 0.905130
7.483634 0.394936 -0.217718
8.455413 -1.585914 1.466398
7.835739 -0.402593 2.251505
7.655272 -1.717356 2.627242
7.579007 -2.432405 4.405129
7.923653 -1.591259 1.376141
7.789658 -1.325615 1.382171
8.331342 -1.433798 1.399625
10.166395 -1.168434 0.127637
7.415451 0.427215 -0.165887
7.722709 -1.515579 2.157974
9.454510 -1.521728 1.627533
11.084621 -0.402662 -0.010778
13.113958 -0.670610 1.082368
7.935961 -0.661089 0.443285
7.351440 0.449365 -0.052697
7.487489 0.393629 -0.220342
7.975232 -1.459270 1.476461
7.762501 -0.619844 0.315239
7.094169 0.543554 0.136716
8.084209 -0.848905 1.028105
8.507703 -0.610295 -0.348289
7.607115 0.346859 -0.297766
9.983384 0.369763 0.363648
8.817373 -1.088915 0.365649
7.623811 -1.412618 2.062798
9.180170 -1.326652 1.346247
10.808166 -0.318949 0.037242
7.708824 -0.435543 0.282480
7.757712 -0.616433 0.317231
8.712262 -2.126283 2.675028
7.578831 -0.120101 -0.058714
8.552793 -0.641435 -0.365929
7.890685 -0.614923 0.449400
7.697437 -0.445299 0.387634
7.081121 0.549064 0.152775
7.105017 0.538904 0.131332
9.905586 -1.030261 0.160085
9.782879 2.047941 -2.098836
7.828260 -1.442110 1.556854
8.536833 -1.053629 0.685257
14.453309 -1.826665 -0.487193
8.124715 -1.024634 0.371562
12.990538 -1.156102 -0.280572
8.536151 -1.053476 0.685776
8.663628 -2.879708 5.143283
8.521760 -1.132892 3.497201
9.050785 -2.240719 3.445069
11.153430 -3.968215 3.921066
8.093801 -0.869639 0.261662
13.589128 0.702102 1.645686
7.771407 -3.689755 6.711611
12.827753 -1.282821 -0.359653
8.091520 -1.200432 1.121914
8.634069 -2.464531 6.228017
7.213979 -2.052131 4.247757
8.750548 -2.414206 6.101993
8.218827 -4.010127 6.969659
8.461133 -4.507287 7.676791
7.597794 -3.085268 5.017633
8.795142 -0.440967 2.225401
8.158847 -0.259807 1.655087
9.250765 -1.130005 0.849460
8.198646 -0.984152 1.025031
9.415242 -1.258493 0.887692
8.966275 -1.360682 0.594902
8.337225 -0.903126 0.628349
8.330514 -1.400766 1.495552
7.518440 -3.094389 5.302132
9.066382 -3.929324 7.482262
8.096852 -4.052708 7.172934
8.197317 -4.244714 7.300342
8.616213 -2.396464 5.495986
9.149585 -4.050995 7.716622
19.219549 7.586547 -12.033035
28.690142 11.364218 -19.345570
25.014673 11.802081 -19.528053
20.561293 7.405136 -11.988100
8.095819 -0.541338 2.505708
7.827058 -2.569686 2.781840
7.956607 -0.384659 2.574687
7.573091 -0.222670 0.761840
7.553135 0.355377 -0.360728
7.502264 -3.357295 5.393516
7.520293 -3.414797 5.450850
12.878192 -2.118490 0.466340
13.633110 -4.277800 -7.216876
14.151093 -4.655387 -7.868925
7.896594 -3.545557 6.417985
8.210848 -0.746097 0.547983
10.096580 -1.053173 -0.566054
17.522358 5.578248 -9.033993
6.742504 0.329106 0.941058
7.161037 -2.443171 3.099113
20.296995 -9.111781 -14.446934
7.751335 -3.930638 9.802663
30.256262 -17.156092 -23.601770
8.348185 0.269173 -0.630816
8.598072 -12.045190 10.849877
8.361097 0.266207 -0.630151
7.016741 -1.432948 3.207889
8.359304 0.265227 -0.629867
8.359799 0.262604 -0.629147
7.663196 -1.688068 4.680872
9.745723 -1.446647 1.707702
7.927229 -3.446684 6.219775
7.883636 -3.423764 6.133888
7.799413 -3.465355 6.246583
8.652405 -6.360212 10.244229
8.200066 -1.648557 4.506207
8.234464 -1.704876 4.601000
7.623132 -3.943250 6.961468
14.900054 -3.500681 2.990302
7.325695 -3.547810 6.450347
20.175596 8.982563 -14.043990
8.299196 -1.202068 3.976755
7.615681 -3.911000 6.918017
8.333388 -2.283010 5.724603
8.360369 -2.244918 4.345990
7.381733 -2.512223 5.021578
8.846716 -1.666278 4.732667
7.836875 -7.437277 11.909081
7.323246 -3.534549 6.432452
7.459867 0.333855 1.020576
7.353010 -4.307877 7.480240
10.771948 -3.266496 3.342851
12.499664 -1.063556 1.110907
8.843326 -2.470399 2.828195
8.296014 -2.126163 4.392300
8.282741 -2.091141 4.160942
8.056134 -3.585042 6.786863
13.958817 -4.276324 4.361475
7.717258 -3.193354 5.500770
8.152273 0.219816 -0.591840
10.221882 -0.556412 -2.211070
9.635197 -0.355256 -2.490983
16.943678 5.698836 -8.652940
9.625218 -0.351940 -2.483595
7.789302 -3.047303 5.722751
7.067297 -2.170933 4.576812
13.608760 4.632005 -6.135755
13.086001 4.049811 -5.609331
7.237116 -2.616824 2.758640
7.399770 -0.844592 3.207264
7.736620 -2.250913 6.210389
6.888206 0.336935 1.024784
7.489941 -2.566854 2.847451
11.195811 -4.831542 5.931288
13.729177 4.270951 -5.876103
22.516045 8.435877 -13.830647
13.648433 4.255866 -5.813523
19.905638 7.317516 -11.691225
45.953762 23.424965 -39.978279
7.738455 -3.229637 5.949345
18.630642 6.235098 -9.406217
7.522751 -1.193214 3.822516
8.374135 -2.192729 2.538915
15.950492 5.868788 -8.690537
6.932558 -0.435352 2.256284
9.524590 -3.619912 3.559487
9.146023 -0.779576 2.339794
19.703083 7.567033 -11.804469
9.513894 -3.606132 3.543411
7.805785 -3.480467 6.263295
9.768006 -0.391749 -1.846546
7.473740 -2.584363 5.087813
7.474800 -2.586958 5.092354
7.201275 -2.419228 4.901217
7.452025 -3.369581 4.694123
7.138195 -0.720277 3.115646
7.521592 -3.253526 5.393119
9.679424 -2.819900 4.624170
7.024436 -1.008624 3.004130
24.103218 11.202956 -18.056631
7.483250 -2.616766 5.133352
7.695169 -2.968582 5.638002
7.413385 -2.256289 4.103001
23.433407 10.721579 -16.287172
7.532568 -2.428422 2.734818
7.334015 -3.009198 3.002531
8.864915 -2.236155 5.751480
23.020418 7.762758 -12.082479
28.923897 13.154243 -20.920450
7.130579 -3.436790 6.465461
6.766613 -0.612251 3.047376
17.176985 -14.277223 4.694252
6.889245 -5.405513 11.849215
22.677130 -9.346798 16.909813
7.505144 -6.799650 9.051675
7.499569 -6.791957 9.038683
10.346509 -14.394814 15.443224
10.338944 -14.380507 15.431216
7.365005 -4.724952 4.856002
7.874390 -8.273158 11.423460
98.204903 -100.000130 8.463209
10.317538 -5.510863 9.011649
20.395336 -6.846557 9.269706
7.266642 -0.953700 3.514532
14.724366 -1.829177 -7.143838
12.133519 -1.006762 -4.864796
12.379527 -1.083063 -4.437679
7.333030 -3.935184 7.037178
7.929360 -3.583434 6.432582
8.800817 -3.958656 7.521577
8.758842 -4.184515 9.431719
18.943815 6.047357 -9.657667
8.449236 -9.529338 14.855146
8.265941 -3.132367 7.514955
8.215134 -1.489857 4.414738
7.714882 -2.052845 1.534267
9.677185 -1.050418 0.413221
9.044897 -0.060062 -1.399977
30.959669 11.547201 -20.051369
31.117088 11.641644 -20.175791
19.321793 8.263891 -12.809006
15.818980 6.040760 -9.008980
25.260485 11.593052 -18.717447
17.970964 7.503478 -11.465419
8.398915 -1.926764 4.962764
8.076106 -3.811378 6.681166
4.060978 -0.481605 1.711753
4.883619 -0.413694 1.973336
9.928768 -4.842472 9.986803
4.057572 -0.678119 0.378280
5.592948 -0.744383 2.515618
4.412137 -2.074300 0.663240
5.057127 -2.297048 1.104779
4.615098 -1.163997 0.769234
3.829481 -0.928158 1.313475
4.846472 -2.682178 0.936156
3.968575 -0.289077 1.520673
5.151256 -0.727465 2.000729
5.292788 -1.069446 2.038142
4.055408 -1.139269 0.849099
4.247867 -0.477212 1.872965
3.946975 -1.787714 0.866235
5.339283 -2.345053 1.295014
5.375479 -0.670482 2.344302
4.239489 -0.563219 1.871302
4.992250 -1.767854 1.207916
4.375528 -2.081268 0.923292
5.046064 -0.713328 1.930074
5.387602 -0.494708 2.490672
5.001541 -2.112215 1.013104
4.941400 -2.020826 0.633605
3.572693 -1.153105 0.966228
3.411709 -0.716870 0.662030
6.823839 -1.116465 4.411756
5.493369 -1.841811 1.198214
5.491702 -1.933966 1.239207
3.869384 -0.256857 1.470955
5.477946 -1.921489 1.233229
4.788383 -1.564002 1.138450
3.361006 -0.666002 0.767037
6.114657 -1.610577 -1.397907
4.978663 -0.836798 1.868146
5.770784 -2.497328 1.263102
4.838592 -1.792804 0.984423
3.895535 -1.402468 0.332399
4.968215 -1.167085 1.533981
4.585388 -1.661372 0.443814
5.058813 -1.387633 1.532377
4.748734 -1.885235 0.703073
9.062071 -3.762146 2.910801
6.324458 -2.693757 1.745402
4.820002 -1.966816 0.907559
4.764580 -1.852655 0.870599
5.786777 -2.236665 1.428110
6.101795 -2.566366 0.642037
7.097247 -0.889076 3.042042
7.187737 -2.874528 0.615930
7.580719 -3.282105 2.262954
8.469616 -3.617044 2.665195
3.882274 -1.253489 0.472256
6.293886 -2.895211 0.912724
7.301905 -2.587049 -0.049774
6.053349 -2.700195 0.571893
6.322850 -2.865499 0.895772
9.151085 -1.456676 4.254960
7.657670 -2.592609 1.084110
7.025455 -2.393883 -0.074744
10.520123 -1.720600 2.833682
5.227325 -1.648300 1.060841
11.880954 -4.259363 3.020434
10.348772 -4.618856 3.860120
6.689082 -1.956524 -0.459652
12.277000 -3.109098 2.140096
12.374489 -2.435058 -1.557359
10.417471 -2.048774 2.671769
20.087595 -9.204419 8.452911
16.820566 -6.303525 3.098130
19.171398 -7.259525 7.650797
17.269068 -6.347798 10.484458
19.376583 -6.694851 9.704473
18.754028 -4.787520 7.759979
17.379801 -4.788821 7.906149
19.513323 -6.750339 9.795609
18.756289 -7.499825 7.522443
18.456657 -4.520404 6.077603
19.872820 -6.522637 8.764322
17.598291 -7.058012 6.887961
20.900557 -8.158604 8.474810
21.414106 -8.323106 7.972288
23.627592 -8.437448 9.991437
19.604023 -5.537704 7.701320
25.200109 -9.112826 10.783998
20.789944 -9.114201 8.599668
25.626160 -10.517700 10.187344
18.032938 -5.880259 7.793736
17.236887 -6.256298 6.759033
19.326208 -7.443614 9.269586
23.398935 -6.383300 11.160114
14.174552 -4.693217 8.446047
13.645247 -4.247417 4.407088
15.885636 -5.364758 8.680892
14.316225 -3.939433 3.779381
6.176256 1.176016 -1.557244
6.973394 -2.569980 2.410426
7.010401 -2.591374 2.415853
10.350321 -0.895240 2.856803
16.170599 -5.560785 6.822654
21.818392 -8.195175 7.460115
17.732788 -5.543952 7.891769
21.204149 -8.890039 8.933125
23.048330 -7.887771 8.976403
23.003014 -7.613345 9.920352
22.103210 -8.171931 8.140249
25.810619 3.429985 -19.057426
24.222900 -8.621581 9.418221
16.974874 -6.291724 9.375138
19.740261 -5.017287 7.546575
15.237499 -6.989079 6.370806
14.944000 -3.358138 5.376900
19.653990 -8.810761 8.403030
10.467388 0.075578 2.469256
22.782515 -7.499129 9.858083
6.424161 -1.761950 -0.646823
13.430844 -0.668581 0.018726
10.144599 -1.698160 2.676997
13.917862 -2.607870 5.932295
39.838985 -10.881771 12.566240
8.947968 5.864772 -6.040918
39.663837 -13.886649 12.869094
19.001633 -7.301758 6.517439
38.531193 -13.565463 12.420323
43.341537 -12.537963 15.377624
41.629135 -13.376852 12.907842
16.190058 -6.182346 6.319592
46.259163 -15.905651 12.430714
10.792637 -0.818555 2.697240
16.664045 -8.680340 11.685115
10.352794 -1.061812 2.700724
10.406199 -1.692488 2.800622
10.426713 -1.438049 2.470952
10.368138 -1.058530 2.715647
21.341051 -8.869063 8.938509
15.519529 -5.386804 6.575215
18.510687 -4.891975 8.743978
17.375847 -7.699858 6.953305
9.662004 -4.327871 3.204091
20.333170 -8.352083 8.304276
16.072155 -5.637550 6.820990
21.841764 -6.062440 10.724669
20.870964 -6.423512 9.689981
15.487099 -5.773266 6.477161
14.998789 -6.168104 5.092680
17.116749 -4.953810 7.712356
15.481367 -4.493609 6.753605
15.389819 -4.742192 0.746872
13.782556 -5.324839 2.593729
6.440262 -2.375835 1.598263
8.802669 2.748873 -2.954216
13.572245 -5.209844 3.700664
7.694316 -0.053340 -0.036578
7.711689 -2.878312 1.900796
13.599230 -3.695691 5.049643
12.942290 -3.830045 4.635040
7.501489 -0.020768 -0.066506
11.620875 -2.566674 4.647816
52.907669 -15.739428 13.171371
31.794683 -4.567955 3.033363
49.715862 7.329059 -16.411154
44.790237 12.311264 -22.513672
34.481747 -5.131051 3.559856
23.948320 -2.237764 0.964933
36.679176 -13.169514 10.623405
32.338867 -12.189418 8.223499
38.821667 -12.637878 10.105431
43.527596 5.378105 -33.165462
41.623413 -13.691991 10.913681
33.383053 -12.570365 8.490593
18.931335 -7.194229 6.873404
10.663636 -1.173939 2.855634
23.175798 -7.958426 10.927932
18.403278 -7.500637 5.665467
21.483484 11.279332 -18.017115
19.865269 -7.567865 7.254805
23.523703 -9.430471 8.958053
21.422882 11.258027 -17.960100
22.238979 -5.574472 7.173188
10.291164 -1.365013 2.459910
20.515066 -10.116523 9.402048
19.860714 -9.817329 9.072962
15.583626 -6.572151 6.055747
8.809000 -4.716489 4.457967
21.790733 -7.082022 9.358673
19.282333 -6.391844 10.214096
17.721176 -6.568328 11.290495
12.196413 -2.546183 3.547166
19.149939 -5.825510 9.317631
29.037195 -9.308058 13.785389
23.221172 -7.800335 13.161475
20.518469 -5.389118 7.264010
8.133676 -0.613672 2.682970
8.536001 -1.873137 5.268157
7.779862 -0.510341 0.283040
8.772589 -2.499120 6.195694
8.180259 -0.680468 2.781121
10.383863 -1.745588 1.043234
8.277398 -0.896548 3.232252
8.288028 -4.402408 7.554308
7.517416 -2.900459 5.533693
8.055174 -3.620496 6.436538
8.344975 -1.635223 4.779729
7.806949 -3.192784 5.330970
8.547574 -2.312044 5.281911
8.411015 -1.781580 4.979199
9.145570 -2.101908 5.457770
8.057353 -3.635653 6.458340
9.062854 -3.896602 7.468027
6.864671 -0.176441 1.069336
9.155012 -2.110895 5.477488
8.473063 -1.663331 4.790293
7.655610 -3.452764 8.113518
7.810778 -4.260695 7.362765
7.948671 -3.589753 6.357215
7.747865 -3.062658 5.153485
6.737409 0.543194 0.679093
7.765844 -3.084526 5.201363
12.937212 3.175631 -4.150151
7.995391 -4.460771 7.700879
7.521884 -2.927623 5.169691
13.052984 -2.173179 0.452894
8.618864 -2.249962 5.061423
14.162416 4.903947 -7.146617
15.889014 5.801102 -8.698711
8.024145 -3.619780 6.462764
8.327862 -1.811951 4.953661
8.166765 -1.480113 4.211078
17.028893 3.424469 -5.576590
8.667191 -3.367065 7.499796
7.548433 -1.438126 1.253533
7.596803 -1.413254 1.266400
17.705915 3.588153 -5.948227
8.311337 -1.792948 4.921239
8.777166 -3.640771 8.387455
8.238514 -1.499769 4.485024
9.281488 -3.232013 5.351388
7.665422 -1.734942 2.569349
8.285594 -4.206887 7.684056
9.239654 -3.173729 5.271431
8.372473 -2.409737 5.995487
6.908336 -0.797998 1.963744
7.626655 -1.591712 1.318689
20.291853 -6.932368 10.375576
16.236782 -6.762467 6.171269
9.587204 -0.395518 0.263777
19.594286 -5.692867 8.329779
15.439429 5.701719 -9.088739
21.237984 -6.950055 10.002401
16.113157 -5.739576 2.393720
19.027990 -10.366662 13.752250
17.428480 -5.414091 7.921080
20.267059 -11.224366 14.836029
16.860571 -5.919206 2.330072
19.473394 -5.486806 8.473483
10.080261 -2.138321 2.665367
10.461504 -2.058054 2.683611
9.874934 -4.285575 3.614410
25.681822 -7.323096 10.333074
17.881683 -5.087514 6.470422
23.945200 -8.851568 11.200963
21.784288 -8.766084 7.740245
15.754877 -6.627895 5.942854
10.385494 -0.812172 2.705714
10.437729 -1.466130 2.466770
23.747688 -9.815886 8.667162
22.870773 -8.621387 7.784667
16.683905 -6.844228 6.469330
22.150021 -5.926334 8.110406
16.021553 -1.516711 0.997653
10.292532 -0.731386 2.334887
32.806149 -11.286297 12.498351
18.842548 -8.242611 7.609004
20.197060 -7.218147 7.233691
27.902323 -8.712731 9.225603
9.180709 0.895315 0.631793
8.876946 -1.254842 3.621940
9.648414 -1.770456 1.874238
10.156917 -0.929977 2.573245
11.695209 -0.409719 0.653026
11.331225 -0.015270 -0.001115
9.044335 -1.513244 4.146228
9.882742 0.868079 0.790529
8.444338 -1.699377 2.028438
10.081133 -1.091269 3.108699
10.008935 -1.055822 1.239163
9.481054 -1.111173 1.926834
10.565610 -0.688458 1.980643
8.271286 -1.804282 5.020037
8.418379 -1.582923 4.667748
8.359960 -1.664261 4.844903
8.662193 -1.474964 2.900295
8.881737 -1.945873 2.236075
8.984717 -1.062132 3.048460
9.335116 -1.149635 2.803844
9.870199 -1.467799 2.668904
8.545321 -1.692652 4.951143
9.606035 -1.011720 2.731985
9.479654 -0.811450 2.192635
9.988519 -0.852499 2.474316
8.876976 -1.254864 3.621977
9.378786 -1.187952 2.347620
9.608980 -1.008441 2.732744
9.306022 -0.725532 2.085190
8.273594 -4.267426 4.091561
20.815969 -7.246023 10.912809
14.614569 -5.037107 2.048186
10.759079 -0.913468 2.352746
13.202430 -1.122970 0.788955
18.682289 -5.038609 8.005372
24.885845 -8.479269 14.258584
19.019022 -6.355007 7.649986
20.551914 -5.635018 8.128819
18.097942 -7.206358 7.300974
17.363338 -4.716875 7.246171
18.481031 -5.479583 8.406918
10.204354 -1.411520 2.565982
29.341682 -10.035518 9.440376
20.960911 -2.695923 2.009074
46.506874 -13.495541 16.443226
17.896070 -6.924482 6.190989
16.264399 -6.801564 6.304578
25.464426 -8.294270 7.749545
10.766206 0.089370 2.613449
10.916671 -1.413317 2.378801
46.572647 -13.070947 18.428511
18.689447 -7.775236 5.770060
16.273493 -5.952031 5.586325
15.919454 -7.931911 10.416898
10.429919 -1.279500 2.219691
10.325391 -1.682940 2.763960
18.870766 -9.463771 8.818459
38.402145 4.766345 -28.874256
7.770652 -1.936823 2.766530
11.437174 -0.626037 -0.284056
11.968748 -1.940618 -0.157543
17.547567 2.050846 -3.719339
7.752179 -1.526611 2.093017
9.416692 -2.740073 6.753416
12.594543 -1.518762 -0.011585
8.842337 -0.236041 -0.711791
7.419466 -0.547706 0.875408
11.896689 -0.942909 -0.194577
7.924764 -1.927006 2.391730
13.648706 -0.880540 0.998689
7.801082 -1.984866 2.780286
9.367868 -3.406845 7.018154
8.586971 -0.115283 -0.635589
20.753908 -8.143507 7.748133
36.415184 -12.891557 10.329441
16.963884 -8.904336 11.916065
29.140173 2.429537 -5.972953
7.874444 -1.030519 3.688234
20.851570 -1.861104 1.403212
26.327341 1.438289 -4.312563
7.731518 -0.291090 2.117165
11.812620 -0.738430 -0.121229
8.453526 -1.601705 4.786074
9.703311 -1.364851 2.553430
28.195755 2.452489 -6.266712
16.962938 -6.585915 6.725391
8.493789 -4.746441 8.028366
9.199878 -3.435496 7.973001
8.532830 -1.847807 5.228183
13.510601 -1.038019 0.200707
11.467313 -0.800534 -0.414505
8.124733 -1.995871 2.294573
7.557575 -2.792429 4.976531
14.344813 -3.604332 5.729548
15.537163 -5.187852 5.093718
15.221183 -4.987767 5.050976
10.864896 -3.084318 0.931057
10.750681 -0.813526 2.685190
10.326579 -1.674240 2.757648
38.304871 3.956573 -9.894984
32.696854 -9.116636 12.037832
8.252872 -1.042491 1.059256
13.065280 3.628150 -5.041152
10.586473 0.888386 1.020458
7.912863 -0.704906 0.382261
8.356929 -0.354467 1.845813
8.755657 -1.197430 3.559049
8.887850 -0.901185 2.106532
7.992205 -1.493283 1.456498
7.610173 -2.965145 5.196906
12.674875 -3.060927 5.111894
15.154532 -1.637319 -0.120535
8.759369 -1.161233 3.160634
9.037215 -1.464886 3.466914
7.836611 -2.056624 2.864529
7.839975 -2.061639 2.870608
8.920257 -1.381286 0.800473
7.852900 -2.081269 2.888740
12.190120 -1.406195 -0.261251
12.208237 -1.369058 0.113688
9.217200 -2.038498 1.619383
8.441033 -2.221336 4.938046
11.052119 -1.517574 -0.069681
7.601305 -1.631840 2.440077
11.744509 1.541906 -1.955206
8.832808 -2.070162 5.560081
15.241867 5.558911 -8.107170
8.725380 -5.507196 9.136612
13.977674 -0.699029 1.184488
13.737467 -4.734288 4.113816
10.550014 -2.087576 2.708575
18.858074 -31.101908 26.624090
15.527591 -4.128469 6.333371
15.339876 -4.067046 6.221650
47.313412 6.109448 -13.392452
18.126955 -6.409639 5.766559
