6.163953 -0.061747 2.023700
1.703165 0.463643 1.149688
1.816498 0.503845 1.213171
4.078659 0.296297 1.511648
-3.830643 1.262164 4.875610
-2.131227 -0.356476 0.817765
-1.093144 -0.307126 0.418517
3.783566 -0.047398 1.273171
-0.931571 0.555064 1.007735
0.989657 -0.419189 0.912638
1.119645 -0.547103 0.893490
-0.571053 0.403170 0.729278
0.962051 -0.503221 0.892151
-0.582998 0.371394 1.321784
0.473966 0.670819 1.200259
1.129433 -0.549807 0.843912
1.062604 0.689801 0.999144
-2.081532 -0.352192 0.857846
1.024921 -0.332787 0.881986
-2.469240 -0.569561 0.748258
4.942626 0.456420 1.798061
1.900716 0.528214 1.178478
-0.603680 0.352520 1.260427
4.363462 -0.012592 1.448011
3.029030 0.437567 1.329659
3.636091 -0.633686 3.141578
3.936602 -0.531395 1.275057
3.864273 0.373159 1.439954
2.725742 -0.415079 0.977409
5.121026 0.176730 2.161381
2.985075 -0.745756 1.061597
4.788823 0.507750 1.630355
6.229214 -1.733091 2.100377
8.674285 -4.115519 10.699760
8.736704 -3.986067 7.575319
9.655401 -1.606831 6.232772
9.159421 -1.113019 4.348352
2.709898 -0.465786 0.913848
6.949916 -1.935702 7.680411
7.983276 -0.996943 3.971259
7.943645 -0.983715 3.937054
8.708677 -2.319034 7.735649
6.957108 -1.550434 6.641984
8.308047 -2.754261 5.289771
10.460786 -0.886401 2.835558
10.409743 -1.209300 2.642046
10.459958 -1.791934 2.758799
9.587296 -0.740660 3.539950
9.420162 -0.474372 3.525516
9.789508 -0.772601 3.424824
8.690613 -3.930700 7.559265
9.392910 -1.200737 3.110537
10.429431 -2.105064 6.112147
10.425417 -3.075990 4.503008
8.812225 -1.546551 5.432444
10.479389 -1.288956 3.033296
9.227206 -1.171119 3.142900
6.059033 -4.046462 7.573276
9.003278 -1.293428 4.915624
9.933208 -1.818672 6.805864
9.739821 -1.764209 6.623673
9.291138 -1.896578 7.161251
5.024566 -2.332336 7.956704
5.118600 -2.926997 5.291587
7.508060 -3.447826 6.587599
10.109241 -0.894832 2.843429
9.567864 -1.167341 2.868576
9.165040 -0.762095 4.129729
9.145224 -0.672823 3.785518
7.291015 -3.211746 6.206495
6.908379 -6.344168 13.556870
8.993179 -1.609516 5.619062
10.785305 -1.978235 5.779095
9.395677 -3.942096 9.378526
8.737884 -3.964014 7.617726
6.997452 -2.044973 2.969616
5.139889 -2.396137 5.760394
6.645998 -3.118290 8.141705
6.819382 -1.528244 5.141669
7.926250 -0.768387 2.182924
6.618007 -3.212038 8.644661
9.631906 -2.658148 4.001795
6.376933 -1.771560 6.730050
3.862738 -3.588357 7.229001
7.925608 -4.257577 9.163025
6.648704 -2.303017 12.754704
4.013053 -1.562971 5.492202
8.938311 -0.778032 3.948683
7.447617 -2.006381 2.516787
6.818261 -2.130161 7.971005
10.806013 -0.768505 4.029244
3.884539 -3.485342 7.040760
10.343951 -1.426084 5.776432
7.580063 -2.101947 8.381736
9.550090 -2.323252 4.542325
8.468947 -2.275756 4.474279
9.812737 -2.751186 4.125156
8.349922 -1.957025 2.388638
9.445481 -2.298117 4.456471
9.529407 -1.537480 3.622866
9.270884 -2.467427 3.781087
8.476023 -0.621866 4.252156
7.602251 -2.601322 3.904844
8.517312 -2.040252 2.456376
7.065901 -6.437515 12.412196
6.738881 -3.980247 7.463871
8.564375 -3.771664 10.712925
3.618389 -1.373893 2.913198
3.916238 -0.189443 1.280368
3.638898 -1.202418 2.373518
4.865933 0.518349 1.416531
3.902655 -0.048181 1.306101
3.922871 -2.160555 3.822812
3.867810 0.139672 1.345562
4.779101 0.470439 1.558317
5.071796 0.006415 2.542791
5.133309 -0.061611 3.011828
3.847002 0.167389 1.426285
3.753459 -1.544126 2.772116
3.727123 -1.560556 3.648999
3.644812 -1.337188 2.855913
3.923789 0.309346 1.635862
4.429242 -0.064759 0.922540
4.141345 0.606061 1.452348
3.900785 -0.047521 1.307587
3.963615 -2.195088 3.896527
3.905322 -0.933092 1.691055
3.866555 0.140947 1.346748
3.890486 -1.680295 3.169838
3.696765 -1.622421 2.874227
3.859556 0.399976 1.506967
4.526214 -2.231154 3.768755
3.865026 0.139841 1.347523
3.952092 -0.702327 1.226422
4.277325 -1.052644 1.959585
3.906235 -0.189517 1.288179
3.866924 0.393602 1.499074
6.092299 -1.636315 1.992912
3.948959 -0.185741 1.334747
3.885077 0.255907 1.439078
5.029103 -1.668703 2.605017
5.871863 -1.939161 3.149395
4.252605 -1.132775 2.049500
3.722258 -1.598366 2.836374
4.745900 -3.289887 6.548778
6.431481 -3.846932 6.781986
4.009450 -2.952563 6.064934
3.610046 -0.922726 3.128563
3.993636 -2.169292 7.171677
8.297103 -2.996655 7.349554
4.783111 0.496831 1.600504
4.803947 0.427098 1.595270
3.629740 -0.904698 3.066217
3.901275 -0.190178 1.292683
3.907432 -0.002813 1.320112
5.358274 -1.652745 1.974053
3.654523 -0.590552 3.108801
3.625021 -1.394903 2.908478
3.677052 -1.329140 2.807042
3.771200 -2.610149 4.407705
4.279016 -1.246709 2.383253
3.957764 -0.521081 1.273854
3.899786 -0.602346 1.266384
4.755794 -0.049850 0.963496
3.924073 -0.045752 1.402987
5.282336 -1.495559 1.948100
5.031979 -1.598654 2.485621
4.619997 -0.760381 1.289719
5.360438 -1.431196 1.623054
2.406126 -0.457628 1.111365
4.894320 0.312478 1.572525
3.896069 -0.211379 1.304617
2.365778 -0.414795 1.184370
5.308371 -1.402804 1.708192
5.848341 -1.639213 1.992881
3.921923 -0.716949 1.232175
4.976027 -1.454848 2.379478
4.265084 -1.140625 2.069116
5.647181 -2.110104 2.630549
0.458290 0.337701 1.318749
10.210644 -2.014890 5.919470
8.109715 -1.278120 4.089725
3.459340 0.427895 1.477745
6.605129 -1.634818 1.737105
3.468095 0.417424 1.465685
6.465006 -1.536024 1.673284
2.644600 0.433946 1.397901
3.474730 0.412276 1.462483
5.623738 -1.490094 2.406931
3.057098 -0.461237 1.178583
3.060699 -0.510274 1.157496
3.476048 0.405846 1.452504
5.662921 -1.545100 2.462075
2.642727 0.430289 1.395571
5.706149 -1.317321 1.360487
8.899067 -3.170036 9.470855
9.109312 -2.493769 8.475178
9.986524 -1.460557 4.669268
5.724313 -1.444534 7.700478
10.201390 -0.522565 3.948628
6.469106 -2.395483 11.534899
10.183089 -0.523413 3.928901
9.877233 -1.069771 4.949231
10.227101 -0.451317 3.234674
8.643090 -0.698841 3.743323
8.093147 -0.367858 2.577541
10.018450 -1.392853 4.410321
9.438811 -0.637546 4.012997
9.015014 -3.279980 9.721311
7.378657 -3.191660 7.509380
8.579768 -2.411564 8.083179
8.322259 -4.646030 12.446831
2.653281 0.431890 1.399847
8.843596 -1.562019 5.458152
8.535825 -2.922539 8.778356
3.059813 -0.458228 1.176680
9.281690 -1.326500 4.767110
9.387974 -5.409317 13.517262
2.669969 -0.476817 0.934710
3.069808 -0.327997 1.231537
2.671156 0.478305 1.275048
6.284316 -1.485190 1.787916
2.673377 0.478587 1.274151
6.424883 -1.978854 2.261922
3.822330 -1.997887 3.317638
4.772949 0.547426 1.401580
3.858346 0.503959 1.493206
3.928566 -1.715257 2.948610
3.626585 -0.964601 3.029986
4.775858 0.551661 1.407040
4.922441 0.457398 1.735740
3.885165 0.301744 1.454582
3.880188 0.302894 1.412407
5.798881 -2.045162 2.285973
3.327848 -0.579530 1.091409
3.879803 0.218375 1.368010
3.878000 0.144342 1.394415
3.476044 0.014276 1.281750
3.863355 -0.027341 2.114707
3.967495 -0.503948 1.266065
3.878482 -0.017072 1.332855
3.964552 -0.732776 1.070207
3.820235 0.098743 2.173556
3.839437 0.501286 1.502277
4.778046 0.604504 1.272038
3.479248 0.009231 1.275533
4.792199 0.454152 1.604764
3.612879 -1.006591 3.067143
3.893057 -0.046503 1.306697
3.929980 -0.001585 1.426094
3.980343 -0.717903 1.167024
3.838538 -0.032574 1.258599
3.882190 0.396584 1.520289
3.888870 0.152470 1.389072
4.933750 0.444445 1.503002
3.857795 -1.385271 3.334017
3.879173 0.398370 1.525383
3.881081 0.312675 1.461874
3.881811 0.216805 1.366449
5.625143 -1.706943 2.059955
4.528895 -1.885278 3.381891
3.885118 0.001603 1.343072
5.699602 -1.884882 2.357947
4.337651 -0.777886 1.282757
3.841325 -0.034308 1.256079
3.876932 0.400916 1.526325
4.337759 -0.781013 1.282222
3.839857 -0.032925 1.257994
3.887208 0.214261 1.362843
3.892426 0.053362 1.292696
3.880708 0.399631 1.521808
4.940455 0.451102 1.513164
4.877929 0.591008 1.269745
3.807493 -1.499084 3.560533
3.890815 0.054150 1.293321
3.897979 -0.024220 1.262281
7.046866 -3.800392 7.194119
3.605313 -1.137086 3.075728
8.847922 -4.212279 7.952135
2.687941 0.485916 1.270839
3.609297 -0.610982 3.211211
6.923066 -1.999531 2.925364
3.743818 -1.026917 2.954190
3.647720 -0.937268 2.985446
6.786147 -1.565600 2.119995
3.629467 -1.395388 2.882091
3.642028 -1.360197 2.851121
5.086702 -1.667259 2.551540
3.636489 -0.956030 3.016662
2.304039 -0.294699 0.904326
2.672018 0.344151 1.367246
5.094824 -1.689200 2.569713
3.757958 -0.490806 3.586496
4.649581 -2.338028 4.483418
3.894372 -0.045590 1.310351
3.900801 -3.433044 6.915465
6.776357 -3.739147 6.633145
3.892215 -0.045324 1.313687
5.995461 -1.761908 2.109577
5.396444 -1.987503 2.527353
3.815164 -0.004953 1.296657
3.935351 -0.896082 1.658346
5.341942 -1.882733 2.432135
9.359416 -6.117828 12.278687
8.314008 -0.956697 4.455725
9.121226 -0.843235 5.037256
5.451172 -1.327404 1.400716
8.296595 -4.830250 13.717819
9.260636 -1.136837 4.870176
9.983823 -6.093307 14.254915
5.081196 1.005259 1.389302
8.184289 -3.578253 6.883751
8.717756 -3.705000 10.974987
9.187817 -3.730973 10.608290
6.668191 -1.580578 2.356547
9.018787 -0.601349 4.480741
7.663023 -0.743151 4.381511
5.625874 -2.007569 1.892467
5.633079 -2.013782 1.894300
7.751335 -3.930638 9.802663
10.648649 -0.555519 5.111939
5.508780 -2.720421 1.824348
4.776970 0.465627 1.550442
3.654599 -1.222586 2.257879
3.919752 -0.188405 1.277958
3.871138 0.215043 1.371413
3.588490 -1.267518 2.455873
2.499064 -0.392329 1.162585
3.901385 0.000802 1.328511
3.667478 -1.281372 2.853462
3.912410 -0.187396 1.283166
2.346997 -0.418192 1.186612
2.663556 -0.410775 0.949588
5.022130 -1.587031 2.559053
6.210461 -1.694309 2.083354
3.931468 -0.512871 1.294950
7.003142 -2.031311 2.888010
4.906058 0.400577 1.687950
6.800970 -3.618464 5.959775
3.901531 0.031695 1.343878
2.500501 -0.393319 1.162351
3.867519 0.390758 1.496333
3.624038 -1.379298 2.879715
3.930751 -0.221113 1.301210
6.659871 -0.299809 2.076407
5.035758 -1.592215 2.477212
2.390196 -0.413846 1.179444
4.915249 0.454292 1.588817
4.959610 0.381473 1.740644
3.962146 -0.592966 1.208451
4.802915 -0.438202 1.166130
3.443750 0.618314 1.170764
6.564333 -1.391906 1.991434
2.411058 -0.410260 1.176036
2.292218 -0.482494 1.125055
3.444068 0.616003 1.170293
4.910755 0.445595 1.574383
3.959048 -0.570080 1.152130
5.674523 -1.789450 2.125460
6.778129 -3.296556 5.688130
5.375299 -1.514342 1.726052
5.930937 -0.543006 2.602158
6.856252 -1.607735 2.155334
4.022995 -0.420620 1.795450
7.393285 -0.231360 2.517366
2.634588 0.355608 1.384911
4.608442 0.580956 1.533257
2.679315 -0.408503 0.948537
3.596882 0.220248 1.635237
2.178479 -0.082255 0.982971
3.898696 0.136089 2.060469
3.667483 -1.281367 2.853453
4.191531 0.543820 1.396545
3.894069 0.218550 1.899986
3.788414 -1.196215 5.070451
7.009252 -2.063501 2.980898
10.342978 -7.592052 18.185814
8.583080 -3.243096 3.980240
2.780246 -0.438370 0.919475
3.141805 -0.730298 1.013597
4.310023 -0.467192 1.047955
3.930792 -0.109104 1.355010
8.625545 -2.476797 8.157687
7.295110 -1.283798 2.845168
3.221969 0.158987 1.075613
9.283750 -0.948845 5.424019
8.088185 -5.573048 10.212539
6.549986 -1.383652 2.000236
9.533885 -1.715611 6.424470
6.461740 -0.328712 2.166197
2.674259 0.435154 1.390922
4.894520 -1.198198 1.656723
6.804627 -1.636498 2.357131
10.378281 -1.020784 6.186594
7.558475 -2.263238 4.529978
8.780005 -1.491227 4.627628
9.240072 -3.441672 10.153721
6.765707 -1.544148 2.122524
4.844880 0.363230 1.595283
8.723899 -1.050678 5.253923
9.645863 -7.792119 18.968403
8.320597 -0.525717 3.223409
9.072414 -1.139177 5.606229
4.973218 0.379499 1.770353
3.232818 0.315804 1.294121
10.638585 -6.000950 16.801748
4.408969 -0.336715 1.071682
8.571787 -3.138259 6.055708
9.277406 -0.834744 4.181073
7.096019 -3.418825 5.718142
7.022153 -1.734603 2.240022
8.459248 -2.138232 7.372594
9.251740 -3.515837 13.585887
-5.110435 -6.577146 2.244599
5.405937 -1.684609 1.899470
9.999973 -1.536972 6.018290
3.721606 0.781781 1.283770
4.607872 -0.239524 1.383530
4.608977 -0.237753 1.382580
11.526316 -2.476035 7.125697
-89.191887 -13.724535 31.226223
15.906001 -0.732507 8.157115
5.423052 -1.694269 1.899942
2.501161 -1.782208 1.231306
0.716976 -2.324440 1.700747
6.846915 -1.754890 2.538811
6.520288 -1.376580 2.132614
4.614967 -2.797083 7.172494
4.457613 -0.240721 1.093052
4.453640 -0.068383 1.165346
3.894918 -0.046766 1.312528
3.848416 -3.571511 7.208207
3.633921 -0.895655 3.075481
4.898886 0.339761 1.775624
2.684156 0.427028 1.387843
3.593670 -0.448411 3.349248
4.906360 0.423440 1.658500
8.712922 -3.603473 5.226785
4.904065 0.421235 1.654555
6.611052 -4.153360 7.705445
4.897908 0.339023 1.773397
3.987250 -1.614545 5.589743
4.881653 0.425952 1.646181
3.698412 -1.178332 3.095965
6.852841 -4.698781 8.674867
4.510722 0.554601 1.434594
5.792694 -0.171780 1.625364
7.867908 -3.217674 6.349550
8.038196 -2.839295 8.154645
9.030302 -4.081110 7.763105
5.383547 -1.486444 1.661114
8.167789 -2.328612 7.265872
5.341991 -1.413059 1.581968
5.794409 -0.171623 1.626667
6.317734 -1.540342 1.850881
4.022994 -0.420621 1.795450
7.698728 -4.954001 9.131757
4.474836 0.522900 1.518211
4.600393 0.563135 1.508705
5.365748 -1.502666 1.717866
4.473374 0.517846 1.510401
7.043118 -2.257744 4.755013
4.038184 -2.325697 7.485185
4.780053 0.543493 1.406091
2.677125 -0.409254 0.948007
2.611165 -1.113318 0.858955
6.880939 -4.221282 7.899699
7.091254 -4.093557 7.793714
5.402014 -1.936419 2.477541
3.641529 -1.114837 2.998754
6.985036 -0.331000 2.170029
1.106239 -0.442924 0.852151
1.952591 -0.463100 0.744232
2.042979 0.490550 1.179439
-0.025564 0.429641 0.773239
2.152284 -0.027552 0.900586
2.649310 0.954407 0.927023
2.017692 -0.792039 0.618353
2.403892 0.332405 1.131194
2.452567 0.334297 1.158747
1.923990 -0.450263 0.722452
1.133900 0.268603 1.258909
-0.704157 0.395873 0.572798
1.319474 0.176048 1.208800
1.798704 0.319338 1.098610
2.146752 -0.846432 0.658308
1.614751 0.722466 0.985318
2.176276 0.616953 1.142390
1.873722 -0.457658 0.766626
-0.026387 0.082328 0.294045
1.089963 0.265530 1.202019
2.126027 -0.026718 0.889200
1.207945 -0.437789 0.921075
2.589774 0.937006 0.903866
-1.643545 -0.376687 0.861503
-0.724720 0.350072 1.410567
-0.216812 -0.593915 0.806133
1.814602 0.316872 1.106626
1.809766 0.497077 1.205193
1.730037 0.567479 1.180199
-1.934353 -0.543989 0.808453
-2.024246 -0.370213 0.964682
-1.870848 -0.359628 0.893637
-2.081858 -0.353856 0.858670
-1.960865 -0.340675 0.834798
-1.011367 0.569601 0.818885
-1.323944 0.724131 1.040456
-1.315984 0.570220 1.027645
-0.491634 0.337128 1.199160
-1.884451 -0.340748 0.860673
-0.814142 0.498653 0.893569
2.807539 0.345480 1.262639
1.854973 -0.567923 0.667436
2.814317 0.343381 1.265203
3.467499 0.427375 1.518090
0.889432 -0.253106 0.869884
3.037333 0.117155 1.368893
3.114225 0.393419 1.384165
0.967962 0.295906 0.298524
-2.747351 -0.569672 0.796004
-2.506298 -0.576028 0.713600
-2.459613 -0.390756 0.838766
-2.261595 -0.375619 0.832294
-2.404805 -0.563132 0.748957
-2.274494 -0.436902 0.781937
-2.151352 -0.366601 0.825148
-2.410520 -0.379877 0.827175
-2.417816 -0.549634 0.691037
-0.808112 0.291206 0.533158
-2.657393 -0.411153 0.921308
-2.295387 -0.357857 0.795895
-2.466060 -0.390273 0.926607
-0.351099 0.215888 0.389714
-2.006446 -0.342500 0.885348
-2.465057 -0.381534 0.840753
-1.937093 -0.333480 0.870681
-2.482145 -0.434009 0.775551
-0.671979 0.384077 0.553791
0.207301 0.219253 0.315913
2.312492 -0.094186 0.936924
1.671330 0.598276 1.131122
-1.803909 -0.561989 0.817309
-2.296149 -0.541101 0.726912
1.697116 0.223791 1.038616
2.008282 0.562537 1.039604
-2.121454 0.191884 0.928874
-2.159296 0.198647 0.944325
-0.466073 -0.027407 1.061315
0.907906 -0.448607 0.854762
1.198079 -0.476934 0.903573
3.670291 0.473746 1.517022
-0.663816 -0.132602 0.356955
-0.368355 0.145297 0.265838
2.020722 0.566671 1.046040
0.882273 0.257251 0.259603
1.625926 0.526731 1.093174
2.176947 0.605713 1.316480
1.920017 -0.564553 0.702067
2.016906 -0.596228 0.740854
1.073389 -0.448792 1.052673
2.407392 1.018012 0.966021
1.711953 0.464413 1.156872
2.934806 0.368802 1.373477
2.039166 0.492896 1.174891
2.368296 0.512841 1.217372
1.989450 0.491443 1.176203
2.162072 0.584202 1.346969
1.973501 0.552920 1.190894
1.736775 0.824925 0.627337
0.662399 -0.504550 0.905386
0.489606 -0.795060 0.816517
2.007212 -0.788274 0.613878
2.519742 -0.047280 1.063654
1.320573 0.180425 1.214163
2.338654 0.596028 1.289438
1.940794 0.495855 1.164645
2.553428 0.344037 1.188747
2.054572 0.482267 1.180998
0.857035 0.249615 0.252929
1.122416 -0.470817 0.872595
1.113991 -0.440241 0.913373
1.204052 -0.614382 0.929867
1.015189 -0.529861 0.939693
1.094432 -0.541499 0.847431
2.789481 0.367020 1.228235
2.553995 0.296845 1.166957
1.994720 0.244846 1.055382
2.157530 0.738367 0.723617
1.978291 -0.590121 0.740522
-0.571614 -0.136923 0.367701
-1.640543 -0.376952 0.860096
1.869054 0.374851 1.114882
-1.709614 -0.343122 0.831288
1.101140 -0.440722 0.850344
-0.214910 -0.597653 0.810547
0.118120 -0.397318 0.718183
1.032030 0.103763 1.114803
2.153879 0.608523 1.128976
2.521081 0.276689 1.218223
2.208248 -0.021699 0.936763
1.052378 -0.565354 0.778723
1.853034 -0.689350 0.648994
-1.750265 -0.430849 0.842777
-1.125160 0.770458 1.126395
2.507755 0.868775 0.885145
-1.732803 -0.352213 0.922018
2.358000 0.256354 1.128730
1.941614 -0.688938 0.674296
2.085495 -0.822154 0.627960
2.098433 -0.875413 0.586259
4.060978 -0.481605 1.711753
4.883619 -0.413694 1.973336
9.928768 -4.842472 9.986803
4.615098 -1.163997 0.769234
4.846472 -2.682178 0.936156
4.055408 -1.139269 0.849099
1.907783 0.310636 1.172208
2.574883 0.290921 1.180407
3.397697 0.974789 0.959442
1.093962 -0.339311 1.032924
1.845895 -0.557603 0.690554
2.577121 -0.099150 1.027862
2.006663 -0.788208 0.614923
1.951475 -0.791142 0.612045
1.883163 -0.468103 0.768054
1.706009 0.452008 1.142218
1.488342 0.454844 1.083772
0.994360 0.180541 1.164213
1.859869 0.885246 0.672597
1.836273 -0.592982 0.673841
2.264642 0.548760 1.213067
2.239635 0.505083 1.208090
1.031619 0.184961 1.231490
1.132953 -0.437112 0.928215
2.004762 0.509098 1.256875
2.321505 0.325077 1.143587
2.714916 0.078140 1.217118
1.131894 -0.494876 0.898386
1.150623 -0.425966 1.040385
1.868009 -0.462737 0.761661
1.305558 0.179797 1.201013
1.658442 0.564808 1.181068
-0.296615 -0.680221 0.796061
-1.822657 -0.522277 0.768202
-1.648892 -0.392436 0.863795
-1.780201 -0.362387 0.861460
-2.843997 -0.653051 0.858135
-2.479540 -0.396646 0.826981
-0.499314 0.329250 1.197466
-3.186640 0.509015 0.962050
-1.881174 -0.352343 0.860170
-2.051762 -0.567957 0.853452
-1.649866 -0.474910 0.833926
-2.509456 -0.482233 0.782613
-2.193005 -0.497788 0.799539
-2.455339 -0.387308 0.819061
-3.473526 0.527693 2.218212
-2.177757 -0.381222 0.876668
-2.632522 -0.432020 0.820332
-2.580771 -0.412433 0.808519
-0.513687 -0.469442 1.067408
-1.747963 -0.340982 0.905452
-1.890337 -0.373048 1.014539
-1.897043 -0.351560 0.864615
-2.216846 -0.367312 0.818874
-3.863637 0.358619 1.692352
-0.213487 0.187725 0.334488
-0.909047 -0.185898 0.434095
-0.516111 0.306527 1.234149
-2.073113 -0.409979 0.941056
-0.462665 -0.400426 1.010156
-1.680058 -0.338603 0.906730
-2.044616 -0.358361 0.858489
-0.622862 0.134045 0.536583
-0.910282 -0.172550 0.436477
0.046462 0.161509 0.234321
-1.900623 -0.346924 0.865012
-1.764841 -0.343219 0.958158
-1.654449 0.343324 1.394679
-1.524871 0.326259 1.295381
-1.363208 0.335153 1.314865
2.400728 -0.766950 0.660255
-1.216867 -0.229757 0.484051
-1.995617 -0.442198 0.814454
3.820369 0.435564 1.516998
3.782889 0.476756 1.531393
4.274503 0.364045 1.598333
0.956005 0.652511 0.946122
-0.601223 0.302745 1.185522
-0.489574 -0.110544 0.287581
-2.116904 -0.365612 0.817190
-1.984354 -0.530470 0.759885
3.282810 0.426842 1.458764
3.555152 0.428438 1.558239
3.735300 0.477724 1.500568
3.880635 0.295399 1.456283
-0.749396 -0.160333 0.376009
3.907555 0.116093 1.369023
3.740359 0.088376 1.293052
-2.734346 -0.551812 0.805174
1.724104 0.273899 1.060847
1.533379 0.833316 0.523463
4.030331 -0.482914 1.129878
3.891249 0.174855 1.404293
3.276018 0.160483 1.178328
4.422571 0.105087 1.611550
4.006680 0.049517 1.390512
3.868891 0.160917 1.372094
3.234763 1.155590 1.156372
-2.548382 -0.574166 0.788521
-2.600690 -0.531422 0.771211
-0.992050 0.227956 0.919370
-0.828129 0.331688 0.606424
-0.592424 0.320877 1.273449
3.936754 0.457391 1.562046
1.586405 0.533414 1.127414
-1.809412 -0.560108 0.812367
-1.648419 -0.408426 0.547734
-2.132203 -0.581396 0.789421
-1.562613 -0.505968 0.757850
-1.141477 -0.209978 0.467972
1.952704 0.508221 1.171701
2.209749 0.495710 1.180451
-1.714599 -0.342251 0.921941
3.705564 0.475123 1.489128
-0.738190 0.525719 0.944941
-2.176383 -0.553101 0.768707
1.781125 0.312519 1.071896
1.703805 0.159055 1.025770
-2.041737 -0.349725 0.854142
3.936680 0.146569 1.396645
3.838629 0.094741 1.348836
3.856665 0.455778 1.504820
3.858814 0.240950 1.442865
-0.663660 0.472070 0.843606
-2.697902 -0.540777 0.795500
1.947730 -0.723320 0.683059
1.927986 -0.701501 0.654896
-1.635506 -0.387728 0.857129
4.451353 0.417060 1.547764
4.400812 0.370831 1.653358
-1.628081 -0.403404 0.853007
1.057391 -0.285234 0.915615
0.919989 -0.441367 0.851886
1.882247 -0.464483 0.767131
3.967360 0.057984 1.375014
3.734816 0.442617 1.455243
-0.476280 0.021462 1.098278
0.440154 -0.844135 0.786340
-0.506468 0.285886 1.287994
1.725893 0.283068 1.067607
-1.629221 -0.335116 0.882878
-1.856657 -0.349417 0.876571
1.929577 0.491925 1.147297
-1.673528 -0.396156 0.873198
3.881797 0.096628 1.367010
3.654645 0.113868 1.297011
3.916293 0.334334 1.462438
3.877650 0.410596 1.504514
-0.809763 0.109071 0.460495
-2.384794 -0.465810 0.790303
-1.986929 -0.448958 0.811091
1.864579 0.373868 1.107664
1.856590 -0.673124 0.657996
-1.236143 -0.326846 0.448955
3.397956 0.402058 1.491636
-2.281812 -0.559361 0.805900
-2.220993 -0.557021 0.780579
2.102805 0.469580 1.119310
3.785646 0.436859 1.500600
-1.255791 -0.226355 0.496696
4.414918 0.360941 1.654262
4.032049 0.355609 1.531939
3.956023 0.121766 1.408926
-2.527889 -0.535621 0.740371
-2.026626 -0.355914 0.828456
-2.149391 -0.425219 0.722806
-1.239350 0.674060 1.219421
-1.542285 -0.506021 0.749208
-0.654362 0.208386 0.815989
3.650684 0.497889 1.480850
3.613746 0.467379 1.474092
-1.531650 0.230992 0.988102
-1.486691 0.305248 1.222113
-2.412997 -0.587655 0.798620
1.924127 -0.700212 0.652143
-3.388094 -0.882575 1.257558
-3.475569 -0.602093 1.456313
-1.415514 -0.262089 0.580255
-2.075343 -0.548272 0.773247
-2.143709 0.256539 1.136533
-3.318974 -0.587450 1.395069
4.038564 -0.337230 1.143331
-1.169242 0.419204 1.114730
4.388189 0.343159 1.607550
-2.008842 -0.376316 0.859482
-3.612346 -0.605345 1.331785
1.896322 0.529847 1.179465
1.867156 0.473460 1.160860
1.861654 0.474090 1.159967
1.656691 0.220428 1.011536
-0.471641 -0.026991 1.068382
2.384154 0.707255 1.314008
2.485584 -1.038239 0.515375
-1.243502 0.277329 1.086044
-1.283960 0.176545 0.752032
-1.642986 -0.339765 0.843374
0.848481 0.390701 1.271746
-0.270423 -1.468083 0.465974
3.411709 -0.716870 0.662030
6.823839 -1.116465 4.411756
5.493369 -1.841811 1.198214
1.630951 0.577207 1.092713
1.192268 -0.444248 0.936571
-0.459267 0.276873 1.236108
1.735267 -0.055330 0.929211
1.705258 0.168350 1.019272
1.186107 -0.437628 0.922123
2.104784 0.506310 1.246741
3.877363 0.318738 1.437446
-0.508654 0.280567 1.274457
3.679183 0.478103 1.537976
-2.533045 -0.585505 0.763908
-1.745281 0.681716 1.226611
3.834178 0.476533 1.695423
3.837800 0.175283 1.377466
-1.635955 -0.396338 0.857826
2.399176 -0.133743 0.899888
-1.811833 -0.433307 0.827990
-1.730510 -0.350053 0.876312
2.212542 0.475670 1.170224
3.747752 0.499584 1.518941
-0.420870 0.546296 0.989311
2.588125 -0.219324 0.943213
1.375073 0.660527 0.950362
-1.813370 -0.430906 0.829189
-2.638810 -0.522194 0.787370
0.526888 -0.756453 0.816768
4.164343 0.049848 1.429848
-2.063092 -0.460937 0.834336
1.560003 0.522371 1.106062
-0.754299 0.139234 0.565931
1.025477 0.403441 1.192910
-1.973894 0.292107 1.221116
2.030428 0.486956 1.169191
1.901746 -0.687732 0.664280
-2.364408 -0.388556 0.854067
-1.130880 0.132665 0.610180
-2.068190 -0.535899 0.782556
-1.632597 -0.403810 0.855489
1.876294 -0.701835 0.663309
1.957468 -0.791275 0.611976
-0.257512 0.265395 0.460699
3.999126 0.306767 1.529919
3.928762 0.061570 1.364985
2.306468 -0.054123 0.962135
1.907215 0.514658 1.251686
3.355412 0.484898 1.515075
1.105248 -0.443450 0.849871
1.225108 -0.603619 0.917873
-1.676820 -0.317704 0.861527
-0.060211 0.184808 0.330010
2.319522 0.212868 1.063095
2.336329 0.494861 1.184863
1.143832 -0.444024 0.931292
2.545618 0.556497 1.317706
2.556975 0.338016 1.193869
1.943497 0.536420 1.210503
2.065651 0.553234 1.321878
1.773742 0.477613 1.156495
1.732291 0.065316 0.987648
1.761230 0.832340 0.650826
1.007222 -0.423105 0.814996
1.128231 -0.530775 0.821196
0.408031 -0.442842 0.763539
1.668766 -0.621386 0.728909
0.978438 -0.383664 0.965237
0.604881 -0.453388 0.847183
1.024329 -0.330845 0.884928
2.233387 0.603744 1.247412
1.604583 0.150951 1.265002
1.617669 0.550946 1.149602
2.021898 -0.824649 0.637230
2.159272 0.566212 1.189129
1.125666 -0.561045 0.842948
0.998035 -0.418920 0.918621
2.007650 -0.597969 0.733819
2.268871 -0.032965 0.931709
2.063157 -0.460001 0.785213
0.991777 -0.274302 0.980042
0.968102 -0.519271 0.954702
0.965429 -0.502823 0.884332
1.055112 -0.523531 0.834473
2.808234 0.800305 0.796757
1.674366 0.599029 1.133263
0.821478 0.239102 0.241899
1.100120 -0.543707 0.851091
1.214685 -0.616675 0.936448
1.075874 -0.356402 0.933048
2.356382 -0.041914 0.980992
0.978744 -0.512774 0.906529
2.442745 0.237059 1.147581
2.254236 0.195089 1.058470
2.324427 0.495736 1.187470
2.276876 0.563137 1.220610
2.536518 0.332539 1.176192
3.344598 0.483418 1.509258
2.487346 0.394815 1.189096
2.418922 0.244447 1.144012
2.268871 0.554641 1.216931
1.739977 0.458345 1.168384
1.895833 0.530131 1.177826
2.111041 0.548352 1.329063
2.464152 0.377817 1.172443
1.972685 0.533127 1.179495
2.436894 0.538847 1.306552
2.533047 0.289370 1.159678
1.679626 0.599430 1.134989
3.194095 0.913989 0.898701
1.931694 -0.690172 0.656185
1.931027 -0.684981 0.668091
1.364212 0.608179 1.073671
0.414871 -0.291530 0.533201
2.033930 0.463832 1.156287
1.990601 -0.576046 0.701668
1.934800 -0.581149 0.700190
2.382099 -0.042384 0.959941
1.068555 -0.305635 1.002611
1.162783 -0.566335 0.870944
1.062880 -0.613660 0.816218
1.198260 -0.461506 0.950692
1.116480 -0.471564 0.874087
1.031605 -0.472822 0.804798
2.150898 0.598183 1.128344
2.382475 0.514265 1.222159
1.089029 -0.360568 0.943975
0.968959 -0.398052 0.940113
2.464459 -0.063500 1.018200
2.017286 -0.791335 0.616761
1.125993 -0.572846 0.871367
1.189109 -0.502639 0.909709
1.391457 0.614017 1.088955
2.020440 -0.797562 0.623714
2.308895 -0.019249 0.969254
-0.553818 0.346588 0.619356
1.670209 0.615559 1.050684
-0.872717 0.604656 0.890825
0.341353 -0.415040 0.724853
0.903520 -0.452720 0.863425
1.833508 0.869517 0.689046
-2.376423 -0.491451 0.856352
1.873236 0.377954 1.118358
-2.486191 -0.433801 0.776695
-2.053768 -0.364445 0.783458
2.536710 0.341676 1.181116
-2.309139 -0.367424 0.801366
-1.134863 -0.322774 0.565959
-1.710503 -0.344136 0.881723
-1.912904 -0.331982 0.791817
-0.924462 1.979413 3.598096
-0.408249 0.071075 0.302559
-0.510368 0.339955 1.222799
-0.827317 0.556897 0.999956
3.660329 0.500257 1.525205
-1.600494 -0.522281 0.794038
2.012407 -0.582001 0.713724
-2.364807 -0.369625 0.787884
-2.011912 -0.358987 0.849136
2.878269 0.412727 1.264267
-2.382202 -0.559820 0.754913
-2.173681 0.446562 0.647601
-0.728342 0.303292 1.125215
1.853314 0.847328 0.774169
-1.558080 -0.367234 0.827817
1.831283 -0.552076 0.696632
0.520045 -0.754004 0.817612
-0.512029 0.291469 1.286227
-0.721153 0.258892 0.477398
-0.935622 0.223599 0.890009
-1.544692 -0.321029 0.853519
2.001683 -0.477918 0.764733
-1.735303 -0.386491 0.829887
-2.130142 -0.390389 0.810184
-2.504763 0.945439 1.741257
-1.747247 -0.349671 0.903723
1.229050 0.377547 0.373160
-2.225091 -0.459364 0.813805
1.082200 -0.390491 0.971729
1.720266 0.284596 1.040578
-2.061374 -0.365747 0.841986
-0.450533 0.140186 0.256139
1.616809 0.717106 0.675817
-0.543105 0.321968 1.252685
-2.534786 -0.416578 0.793688
2.107053 -0.055056 0.980050
3.671444 -0.177314 1.347881
-1.304931 0.599182 0.874483
1.167251 -0.455120 0.879699
1.108017 -0.434786 0.909276
1.183121 -0.421697 0.892539
-1.305621 0.329602 1.315729
1.121338 -0.408863 1.031747
-0.792629 0.492381 0.889336
-0.869767 0.173156 0.699720
1.094975 -0.436980 0.841528
1.570207 0.527269 1.111833
0.506351 -0.697768 0.757747
1.623432 0.531388 1.092606
1.210766 -0.498747 0.924821
1.170740 -0.420955 0.886946
1.036895 0.102646 1.114515
1.327445 0.180413 1.217672
0.911797 -0.437125 0.847714
1.030491 -0.361186 0.864536
0.999885 -0.434612 0.957958
1.550913 0.138890 1.215300
2.286358 0.569361 1.224225
1.835396 -0.596955 0.666591
1.881963 -0.609558 0.685219
1.775068 0.106148 0.615439
-0.243550 -0.626580 0.843404
3.816382 0.236045 1.404082
3.842483 0.356011 1.456600
3.834616 0.087821 1.316386
1.828679 -0.602693 0.669370
3.877084 0.187783 1.397665
3.995919 0.411035 1.566487
3.898984 0.041419 1.336625
4.560453 0.451651 1.638898
4.197464 0.309548 1.565668
2.116347 -1.242097 0.398769
3.815270 0.089559 1.314432
3.863995 -0.019944 1.300009
-1.116252 0.361983 1.410517
-1.592150 -0.465065 0.812416
4.514214 0.443320 1.621241
-2.282601 0.214539 0.976423
-2.021613 -0.355294 0.789387
3.893884 0.245117 1.435257
4.218019 -0.020463 1.434725
2.148533 -1.283190 0.401821
8.469616 -3.617044 2.665195
9.151085 -1.456676 4.254960
-0.613814 0.224379 0.865786
9.866181 -1.922378 2.511735
10.520123 -1.720600 2.833682
10.352777 -2.129438 2.598435
2.332392 0.500740 1.199180
3.380799 0.423048 1.488403
1.978505 0.556145 1.200597
1.908130 0.521011 1.131888
2.268303 0.558037 1.194723
0.969334 -0.393336 0.932346
2.410812 0.293530 1.101159
1.888561 -0.610663 0.686519
5.113348 0.794055 1.146866
4.043146 -0.310147 1.257085
1.922796 -0.529777 0.682020
0.498629 -0.754878 0.821586
5.199872 0.786402 1.199972
-1.588340 -0.333069 0.860606
5.481721 0.703057 1.424371
0.508502 -0.544604 0.970565
10.812580 0.173664 3.795444
5.121055 0.751962 1.133025
-1.594329 -0.537542 0.801429
-10.059102 3.585823 6.777359
1.925130 -0.674690 0.657984
10.313643 -2.122811 2.593669
10.417471 -2.048774 2.671769
10.456840 -0.476510 3.337595
10.499242 -0.028357 3.506189
10.370594 -0.233737 3.465560
-2.092504 0.702901 1.032755
8.611554 -1.770022 2.126459
10.382361 -2.042333 2.669757
10.248908 -0.619187 3.184609
9.485976 -1.671664 2.445457
4.697910 0.643125 1.094854
9.894110 -0.857993 2.762615
19.171398 -7.259525 7.650797
17.598291 -7.058012 6.887961
1.874740 0.378946 1.122308
2.014955 -0.789367 0.615001
10.632320 -0.188582 2.864790
-0.530351 0.403919 0.579304
1.971898 0.548185 1.189551
10.426373 -0.507080 2.712701
11.901940 -0.089860 3.179589
10.470328 -0.831774 2.724385
10.295084 -0.205860 2.753830
10.767561 -0.211309 2.961467
10.466867 -1.432469 2.531714
10.539670 -1.455250 2.505779
10.361790 -0.507989 2.696912
11.353803 -1.417109 2.872498
10.274647 0.115116 2.946439
9.856462 -0.195177 2.694709
10.455436 -0.520790 2.734668
10.225399 -0.835093 2.720033
10.168403 -1.184764 2.588435
25.626160 -10.517700 10.187344
3.900810 0.189103 1.407611
5.049713 0.723436 1.115539
5.057064 0.695085 1.299349
-1.750025 -0.431142 0.842040
5.131240 0.706410 1.321884
-2.091210 -0.447450 0.800744
1.380453 0.666808 0.973613
-1.414278 0.293188 1.190294
4.961151 0.519476 1.654661
5.152561 0.704115 1.325535
-5.325958 0.617343 2.695972
2.018767 0.247847 1.069493
1.703734 0.063726 0.965376
5.265181 0.517125 1.732376
-4.002827 -0.613303 1.269781
-2.095566 -0.374072 0.841785
3.656117 0.473056 1.515339
-2.334441 -0.394791 0.840162
-2.103796 -0.332986 0.814115
2.323444 -0.230604 0.878386
-0.818636 0.374718 0.677550
-0.485884 -0.132459 0.343414
-2.106522 -0.535379 0.746724
5.046498 0.697766 1.317611
-1.549617 0.558301 1.015002
4.035472 0.378428 1.553802
3.898558 0.196218 1.414052
3.913007 -0.008665 1.318008
3.840354 0.108536 1.345273
3.926779 0.430443 1.531135
5.404979 0.784244 1.197911
-0.464048 0.036985 1.141891
5.311227 0.518418 1.766563
4.448325 0.657571 0.965322
-1.820057 -0.532763 0.867243
4.513691 0.644951 1.059422
-1.710324 -0.533969 0.812462
-1.007669 0.578320 0.832115
5.107961 0.745404 1.167822
-2.176422 -0.373471 0.822110
-1.629895 -0.457079 0.837897
5.133635 0.755251 1.219752
-1.820647 -0.356346 0.860878
3.890854 0.012228 1.341886
-0.508030 0.328257 0.580329
2.258946 -1.267723 0.408343
-1.984568 -0.361858 0.883587
3.910069 -0.760270 0.954465
-1.204465 1.132665 2.066850
-1.613382 0.542783 0.976584
-0.483943 0.947979 1.378758
5.139291 0.527969 1.697060
-2.683614 0.280528 1.264472
1.955571 -0.792620 0.611107
-1.690091 -0.423611 0.823189
5.594868 0.789689 1.445250
2.147875 0.498810 1.183974
3.882981 0.089492 1.339350
5.230528 0.616023 1.525751
1.385453 0.668987 0.974325
4.970791 0.517182 1.658800
1.898268 -0.690714 0.654419
1.851761 -0.558197 0.706617
-2.510681 -0.390631 0.854944
2.018878 0.248546 1.068001
-2.056273 -0.460459 0.832305
-1.516895 -0.348531 0.589346
1.858220 -0.559305 0.709305
2.304995 0.486602 1.172657
10.658172 -0.825029 2.335518
10.325312 0.096903 2.912953
10.301745 -0.268512 2.732234
10.350321 -0.895240 2.856803
10.411835 -1.007089 2.818036
10.374743 -1.320361 2.514304
10.099322 -1.298349 2.590920
10.388222 -0.835668 2.694214
10.314895 -0.779273 2.554188
10.204151 -1.426431 2.342468
10.684989 -1.496575 2.634186
10.503177 -1.171236 2.696794
10.336301 -0.767485 2.549760
10.386023 -0.333626 2.784443
9.797939 0.174867 2.862937
9.729906 -1.330242 2.257923
19.653990 -8.810761 8.403030
-4.841887 1.031579 1.893875
10.218796 -0.685025 2.556228
10.467388 0.075578 2.469256
1.951515 -0.788208 0.608076
10.381740 -1.081972 2.774810
5.252635 0.812478 1.184743
3.473229 0.642621 1.229146
13.677671 -1.850448 5.475090
15.412159 0.122406 3.419056
10.144599 -1.698160 2.676997
41.629135 -13.376852 12.907842
11.006413 -1.639560 2.596304
14.117579 0.074005 3.361650
3.299779 -1.848518 0.926243
9.311497 -1.836416 2.028913
10.792637 -0.818555 2.697240
10.904408 -2.284015 3.040320
4.992574 0.607959 1.455335
4.991807 0.607022 1.455914
10.409527 -0.820911 2.713614
10.352794 -1.061812 2.700724
10.406199 -1.692488 2.800622
10.422311 -0.024724 2.875592
5.174328 0.800818 1.163387
10.961978 -0.240269 2.831115
-0.470649 0.545200 0.976260
10.248423 -1.386509 2.508827
4.997390 0.734667 1.078505
1.370286 0.612981 1.081346
1.706440 0.008730 0.946473
2.041506 0.494824 1.161461
10.394851 -1.073422 2.786902
5.310895 0.520370 1.743604
10.283363 -0.467005 3.260383
10.815127 -1.499128 2.614301
2.278671 0.570435 1.224333
-1.421455 0.485713 0.691279
3.517081 0.444329 1.472884
10.426713 -1.438049 2.470952
10.539271 -1.089656 2.828052
10.361937 -1.157309 2.665993
10.193402 -0.919394 2.890658
9.578199 -0.813132 2.621585
10.350438 -1.459296 2.618226
10.577689 -1.425951 2.609518
10.353745 -1.439630 2.561026
10.228376 -1.136304 2.636021
10.368138 -1.058530 2.715647
5.184096 0.744492 1.149304
10.286014 -0.911864 2.827757
-1.996882 -0.376169 0.816136
10.492625 0.140806 3.224100
1.959785 -0.757972 0.628089
10.363034 -1.429533 2.572769
9.662004 -4.327871 3.204091
15.487099 -5.773266 6.477161
5.520900 0.828321 1.217357
8.972587 -1.847564 2.207673
0.532572 0.487962 0.873166
10.096398 0.200792 3.422147
-1.679737 -0.345762 0.870521
-1.624923 -0.339960 0.849465
2.252081 0.522985 1.182731
1.854181 -0.679882 0.642931
3.921668 0.227877 1.447857
-1.582670 -0.460044 0.810431
0.310841 -0.486724 0.836564
5.485933 0.637260 1.608576
-1.948414 -0.544811 0.737550
1.578547 0.539349 1.115304
3.550570 0.477643 1.410179
2.293648 0.462131 1.140932
-1.768313 -0.349101 0.856282
5.603818 0.783635 1.497677
3.946057 0.332688 1.527424
5.216822 0.697241 1.335722
4.101435 -0.768350 1.077140
1.931505 -0.583044 0.700129
3.898976 -0.027822 1.279653
7.263396 -2.375166 2.555490
10.387740 -0.311678 2.735590
10.141376 -1.773676 2.632624
10.278931 -1.176657 2.751136
10.826414 -1.532072 2.749602
3.351968 0.485468 1.465565
10.349171 -1.113483 2.672308
10.821997 0.420523 3.288893
10.327054 -0.667789 2.988176
3.994351 -1.078104 0.830282
10.330379 -0.158581 3.422770
10.310163 0.152688 2.965709
5.033381 0.616821 1.495404
10.555522 -0.793242 2.615727
10.382286 -0.245476 3.396018
3.371040 0.492831 1.526692
1.867623 0.472499 1.158045
10.720230 0.156632 2.936826
10.663636 -1.173939 2.855634
10.194254 -1.332300 2.516240
10.372745 -0.801795 2.746057
11.310946 0.120026 3.587010
9.456268 0.049300 3.043031
11.300517 -1.434538 2.962473
10.590539 0.135989 2.926525
10.272233 -1.310142 2.664796
10.686692 -0.028277 3.655246
10.399309 -0.156837 3.520128
10.291164 -1.365013 2.459910
5.223247 0.405248 1.947560
4.943221 0.512758 1.624541
10.436307 -0.155124 3.533007
3.268893 -0.457067 1.276984
10.328326 -0.236429 3.442944
10.960201 -0.245242 3.600355
10.289186 -0.444925 3.327352
10.324224 -0.245473 3.378481
10.275778 -1.348878 2.592154
10.372982 -1.192372 2.715812
5.651932 0.830990 1.419896
9.454780 0.152780 2.800272
19.860714 -9.817329 9.072962
7.039298 -0.866508 3.037013
8.926479 -4.419724 11.338825
9.768949 -1.618495 4.797349
9.152223 -5.861853 11.317421
8.141459 -4.633657 11.452022
8.251016 -3.527258 10.069738
5.272984 -1.619373 2.218956
8.351563 -2.781795 7.708965
5.376907 -1.543525 1.763570
8.824452 0.201102 2.945747
3.758595 0.473585 1.475448
3.876863 0.160240 1.409959
5.372933 -1.913820 2.468429
9.924864 -4.343953 10.560011
4.198551 0.036975 0.944725
7.152501 -2.237144 3.092048
4.712284 0.446401 1.580108
6.763588 -0.509030 3.255572
6.652422 -0.499813 3.131767
6.277600 -3.430474 6.018385
4.922427 0.437896 1.685847
3.660830 -1.216243 2.251467
3.867368 0.299554 1.412308
5.386520 -1.921042 2.468132
6.059069 -0.216697 1.699421
5.412950 -1.534606 1.657899
5.367165 -1.520046 1.771436
3.880920 0.160238 1.405442
3.633742 -1.447599 2.900682
3.884543 0.316413 1.462858
6.447993 -1.584339 6.245601
2.649766 -0.481834 0.921289
6.714888 -1.516043 2.080772
3.892044 0.091474 1.370187
5.345412 -1.852828 2.412426
4.252180 -0.818435 1.285141
5.233204 -0.164278 1.380201
5.076081 -3.728261 7.077856
5.993975 -0.199630 1.658779
4.927754 0.377924 1.694644
7.150020 -1.821376 2.328511
3.690414 -0.397605 3.018332
4.972819 0.361171 1.762516
10.429358 -0.185255 3.506360
10.248004 0.030138 2.849565
10.312129 -0.126005 3.543060
20.291853 -6.932368 10.375576
1.828180 0.484565 1.155955
2.299537 0.478586 1.178100
3.497897 -1.752124 0.903511
3.489284 -1.746631 0.900237
10.080261 -2.138321 2.665367
8.508183 0.121558 2.929407
10.461504 -2.058054 2.683611
10.170228 -0.406496 2.666630
10.739298 0.137765 2.870924
10.271887 -0.230320 3.415187
10.198610 -0.438054 3.290351
10.457402 -1.294834 2.228892
10.647992 -0.923695 2.318397
8.346829 2.585787 2.494588
4.605074 -0.430694 1.365940
-5.523423 1.599363 3.022983
9.905200 -0.916819 2.665046
9.809686 0.212601 3.368682
10.385494 -0.812172 2.705714
10.437729 -1.466130 2.466770
10.146131 -1.373138 2.479111
10.713966 -0.186151 2.956216
5.146500 0.752810 1.128996
10.358695 -1.423893 2.499045
10.222337 -0.918994 2.885838
10.279856 0.074328 2.422023
10.257829 -0.870692 2.836338
10.292532 -0.731386 2.334887
-4.284382 0.566175 2.408840
10.778018 -0.923276 2.353991
10.714565 0.137814 2.807844
10.521791 0.010409 3.561901
10.410864 -0.058924 3.436459
10.817264 -1.375090 2.354237
10.510662 -0.602482 3.340336
11.160171 -0.994105 3.478793
8.978594 0.185916 3.026890
0.212919 0.539040 0.957163
-1.736624 0.844562 1.548726
10.116859 -2.165670 2.675025
3.409996 -1.688895 0.871273
2.009568 -0.729848 0.646529
9.744066 -0.205816 3.366300
9.356301 0.162687 3.213466
10.326382 -0.642390 3.203206
9.741684 -1.988980 2.170715
11.191460 -2.341777 2.514953
3.416703 -1.691969 0.873577
10.978605 0.179217 3.869210
3.913234 -1.156062 0.756201
10.302395 -0.771586 2.542369
8.955147 -0.685168 2.694290
10.154904 -0.388792 3.299628
8.273594 -4.267426 4.091561
5.076244 0.812422 1.108925
4.937120 0.491735 1.796453
10.814140 -0.037084 2.655387
10.340956 -0.505310 2.679616
10.759079 -0.913468 2.352746
3.473609 -1.485000 0.605630
10.498770 -0.173482 3.543135
-4.336055 1.860274 3.481848
3.974881 -0.940190 0.897181
10.868179 0.151270 2.994731
10.456156 -1.367540 2.245414
3.951965 -0.905888 0.899185
10.572996 0.107399 2.813775
10.173501 -0.933320 2.892313
9.046074 -1.836044 1.963953
10.204354 -1.411520 2.565982
10.291591 -0.142594 2.595369
10.860469 0.405794 3.155531
10.467907 -0.634812 2.666950
9.133596 -1.838604 2.297523
10.511455 -1.153613 2.720864
3.879452 0.401139 1.489532
10.568526 -0.517976 2.750570
8.625621 -0.015412 2.958949
17.964676 -0.331307 3.932840
10.372403 0.132801 2.968463
10.766206 0.089370 2.613449
10.716956 -0.216917 2.700092
10.916671 -1.413317 2.378801
10.917496 -0.483273 2.453474
10.483777 -1.355809 2.737167
3.895701 -0.103513 0.899038
5.094110 0.732474 1.093738
10.351010 -1.705785 2.760492
10.286063 -1.391175 2.502062
-3.673006 0.226792 3.512571
10.624120 -0.272519 2.895426
10.429919 -1.279500 2.219691
10.325391 -1.682940 2.763960
3.700090 -0.150855 0.794516
4.403055 -0.821311 1.027759
10.297789 0.076454 2.890346
8.508568 -3.552519 9.229115
3.993406 -2.940040 7.391326
9.442606 -0.863026 4.304333
9.195580 -1.252424 4.096945
6.580098 -3.458341 6.184526
7.626081 -5.135997 8.118189
3.896588 -3.463339 8.520176
9.174032 -0.686967 3.831651
10.213541 -0.011210 2.391147
10.406324 -1.173502 2.757178
10.191708 -2.203656 2.607918
3.381016 0.413409 1.469997
6.843660 -1.920210 2.848091
3.735193 -1.117877 3.011953
3.395926 0.487627 1.437866
2.370424 0.595123 1.284176
1.709624 0.037118 0.958023
2.375228 0.544627 1.274687
10.102741 -0.480598 2.591788
10.302177 -0.389654 2.726949
10.052108 0.099320 2.814090
10.219525 -0.331741 2.708740
10.429941 0.145321 2.783557
10.579746 -0.215942 3.804027
10.474814 0.135276 2.794351
7.010821 -2.254855 2.517349
10.592565 0.081752 3.368867
7.525291 -3.445454 8.529026
7.029278 -3.801489 7.188962
6.565373 -4.015871 7.474471
8.259014 -0.859821 4.990798
9.885815 -1.042043 5.284223
9.830951 -1.226397 2.990255
10.336889 -0.360750 3.398927
8.395067 -2.349096 7.770501
6.886888 -3.682830 7.010598
8.892418 -0.995150 5.639443
9.484294 -0.796299 5.153368
6.722558 -2.673280 12.699154
10.895448 -1.093106 3.321480
8.391371 -2.377039 7.744498
7.731518 -0.291090 2.117165
8.292833 -5.202659 13.984160
9.713490 -0.755987 4.159688
10.126283 -0.484694 3.798489
8.675301 -5.288882 10.858508
9.639315 -1.741864 6.542098
10.363842 -0.373363 3.399641
7.263332 -2.265902 5.559390
8.146986 -0.962294 4.250948
8.925847 -1.575451 4.747078
6.213975 -4.032495 7.569774
9.793118 -1.298336 3.274105
7.472691 -2.029989 2.539003
10.686735 -1.245299 5.956979
7.144700 -4.260029 7.937807
6.603422 -2.458621 12.122884
8.981525 -3.474369 4.540665
6.557594 -3.528167 6.230495
10.337278 -0.811636 2.668983
10.303786 -1.686197 2.750155
10.385525 -0.631642 2.329642
10.210799 0.098411 2.873561
10.207485 -0.910270 2.882990
10.404818 -1.147557 2.683485
10.805137 0.170496 3.803064
1.863064 -0.695949 0.659922
10.531917 -0.375143 2.798344
8.454901 -3.532573 6.871994
8.520925 -0.637054 3.675603
7.149145 -2.418628 4.954772
6.641075 -5.400225 10.496701
9.662780 -3.219342 10.370384
4.891438 -3.730678 7.219107
7.803904 -2.191318 2.510967
8.852305 -3.906968 7.472599
7.030280 -0.342638 2.909832
7.148460 -6.671590 12.729966
9.439876 -4.908881 12.872503
10.586469 -1.342308 2.635119
10.750681 -0.813526 2.685190
10.326579 -1.674240 2.757648
3.951301 -0.504898 1.286289
5.630773 -1.855018 2.282602
5.630558 -1.798637 2.094327
5.644572 -1.880888 2.302288
4.984396 -3.454627 6.643579
3.751181 0.631211 1.201071
3.867081 0.494834 1.482107
3.841595 -0.032400 1.258167
3.870376 0.393439 1.533090
4.801241 0.571799 1.338395
3.872967 0.300726 1.457544
2.704805 -0.461544 0.935241
3.739327 -0.538969 2.928218
8.775586 -0.612520 3.537174
9.623043 -0.746931 4.082365
9.657908 -1.328084 4.285442
6.992032 -2.048445 2.975742
6.369980 -1.469599 1.622905
8.208974 -3.038706 4.040692
10.640903 -1.890039 5.451539
11.523779 -2.178972 6.110589
6.776261 -1.565184 1.708300
7.812224 -2.743174 4.104820
5.923475 -2.418932 4.201684
6.743706 -3.077426 6.644985
8.963690 -1.121803 4.615373
6.428123 -1.333748 1.920051
3.902102 -1.627245 1.232264
8.215711 -5.597161 13.767512
6.814620 -3.683089 6.562102
6.798046 -5.811580 11.285733
11.172206 -1.685745 5.126007
8.820077 -1.045703 4.769716
9.451001 -4.206082 5.130720
8.899349 -0.800148 4.900641
7.286747 -0.514156 3.454269
8.643847 -0.590247 3.099730
10.866512 -1.648968 6.727321
10.550014 -2.087576 2.708575
18.858074 -31.101908 26.624090
10.977533 0.094420 3.495601
10.437538 -1.125366 2.664388
