-1.249669 0.200639 -3.475413
-0.778879 0.898902 -2.885102
-1.341466 1.278615 -2.871548
-2.427197 0.280749 -3.475860
-1.248079 0.203384 -3.471861
-2.364368 1.237188 -3.153759
-1.465182 0.000213 -3.925220
-3.391622 2.202776 -2.624758
-2.384218 1.206218 -3.176454
-1.386617 0.573880 -3.341419
-1.247917 0.597011 -3.275900
-2.337832 1.176128 -3.169112
-2.448845 1.290528 -3.203035
-2.600156 1.246446 -3.294005
-2.249511 1.331375 -3.109818
-2.328149 1.312900 -3.190712
-2.335713 1.290106 -3.123336
-2.989601 1.424843 -3.509257
-3.915025 1.414804 -3.979437
-4.087955 1.442457 -3.958790
-2.514025 1.329315 -3.187207
-1.371378 1.738242 -2.720892
-2.468204 1.230382 -3.206258
-2.507379 1.235012 -3.224303
-2.351561 1.230750 -3.178296
-1.325302 0.573955 -3.350409
-0.777905 1.706344 -2.188708
-1.217320 0.766458 -3.140730
-4.740569 2.102738 -2.757546
-0.088729 1.050521 -2.722038
2.894749 2.013422 -2.484261
-0.827083 1.712630 -2.660688
3.227632 2.072986 -2.481544
-1.075981 0.802108 -3.090654
-1.087121 1.205642 -2.815849
-1.245296 1.375991 -2.841571
2.831998 1.846032 -2.512308
-2.421403 1.232961 -3.246613
-2.416129 1.346307 -3.169344
-2.153894 1.269412 -3.102201
-0.829414 1.649351 -2.654488
-2.479250 1.302901 -3.191419
-3.099230 0.107056 -3.847521
3.049873 1.984351 -2.495233
-1.441316 1.291684 -2.958969
-1.163985 1.406194 -2.800248
-1.499252 1.183051 -2.990858
-2.747692 1.287974 -3.347250
-2.631822 1.328167 -3.251206
-2.519645 1.253151 -3.256208
8.590629 4.229065 -3.344949
-1.286957 1.431476 -2.855066
-1.376831 0.568011 -3.381833
-1.332240 0.571961 -3.354481
1.331092 1.728885 -2.184866
2.801118 1.850431 -2.504842
-1.266275 1.280900 -2.923570
-0.997633 0.807400 -3.080289
-2.678169 1.209556 -3.328327
-1.178512 1.648872 -2.682196
-4.463307 2.016924 -2.621914
-2.231444 1.265798 -3.226668
-1.239802 1.308124 -2.890817
-1.375175 0.124921 -3.619473
-1.323434 0.257852 -3.450308
-2.402375 1.348256 -3.156826
-1.200351 1.674392 -2.680897
-1.216602 1.682480 -2.690889
-4.540480 1.501836 -3.071818
-1.263743 1.706632 -2.713500
-1.141118 1.087034 -2.976748
-2.553517 1.225710 -3.269125
-2.545104 1.235330 -3.256013
-1.240596 1.333173 -2.877759
-1.212469 1.330045 -2.862299
-5.532799 3.040719 -2.970149
-2.257855 1.276298 -3.153905
-1.273381 0.597636 -3.265849
2.966321 1.940280 -2.520342
-1.321647 1.693854 -2.703726
-0.232469 1.021959 -2.672612
0.179052 1.105200 -2.695074
0.608081 0.992537 -2.708642
3.918942 2.111413 -2.420423
-0.467434 1.059893 -2.922444
0.556721 1.841088 -2.224943
0.556731 1.838983 -2.224962
-2.146116 1.344973 -3.134674
2.745312 1.767723 -2.328894
-1.217198 1.427784 -2.816832
4.162220 2.072244 -2.443692
2.786203 1.871562 -2.016661
2.611790 2.034599 -2.508691
0.529783 1.824942 -2.228242
-0.106880 1.049445 -2.758551
2.959616 1.933111 -2.527404
-1.051675 1.239540 -2.786836
-2.556715 1.212413 -3.288050
-2.611217 1.284238 -3.330285
-2.103020 1.302407 -3.059074
-2.266017 1.288214 -3.146398
-1.977283 1.343996 -3.052771
-2.540541 1.232385 -3.241880
-1.928088 1.172412 -3.067049
-1.885443 1.314967 -3.044665
-1.923747 1.319120 -3.028933
-1.149230 0.174613 -3.430888
-2.014600 1.227566 -3.060925
2.039203 1.844353 -1.976923
-0.795890 1.705189 -2.643356
-2.356978 1.340372 -3.144775
-1.331002 1.198422 -2.910753
-2.242119 1.349732 -3.109041
1.617645 1.833928 -2.113752
1.058852 1.799438 -2.114071
-2.201086 1.175396 -3.129171
-1.189178 1.334653 -2.850399
-1.137221 0.107379 -3.533944
-2.646565 1.244871 -3.268230
-3.003024 1.404489 -3.420503
-2.534492 1.340351 -2.413969
3.660878 2.189645 -2.501883
-1.176216 0.093550 -3.554084
-1.149560 0.104133 -3.534361
3.838792 2.053587 -2.368595
-2.253340 1.320077 -3.075339
1.627077 1.858586 -2.126605
2.754796 2.114971 -2.496126
-2.397199 1.241842 -3.143257
-2.190842 1.306597 -3.059229
1.519890 1.886559 -2.286182
3.937322 1.787714 -1.532974
2.147422 1.007970 -2.984235
3.939751 1.789169 -1.533048
2.073205 0.957010 -3.121683
2.103450 1.005434 -3.052552
1.540175 1.877549 -2.268549
1.420635 1.851577 -2.389899
1.385334 1.921279 -2.523045
1.269420 1.684965 -2.192559
1.665289 0.936497 -3.201226
-0.723984 1.316605 -2.759217
4.133704 2.074244 -2.371699
4.117049 2.027783 -2.357010
-0.594857 1.345770 -2.691132
1.869154 0.991986 -3.046499
1.880724 0.993642 -3.025376
3.344778 1.898859 -1.963848
-0.605303 1.626071 -2.565492
1.193412 1.861216 -2.168372
-0.621413 1.635843 -2.561653
1.378282 1.836819 -2.169090
1.518749 1.827751 -2.153234
1.506986 1.833126 -2.166401
0.905843 1.695959 -2.271264
1.514153 1.824744 -2.163883
1.787235 0.997538 -3.046029
1.370089 1.843660 -2.171063
-1.546942 1.570205 -2.788859
0.413494 1.845153 -2.220243
1.393359 1.944345 -2.340127
1.478953 1.902672 -2.307874
1.530072 1.867958 -2.284367
1.517693 1.883029 -2.292031
1.386770 1.889041 -2.382556
2.260582 1.005537 -2.901119
4.905493 2.032573 -2.237207
1.406305 1.939885 -2.512434
2.240927 1.007264 -2.922078
3.974863 1.804745 -1.533688
5.930099 0.774594 -2.809400
3.959273 1.783498 -1.532296
1.369041 1.957667 -2.537025
1.474125 1.895470 -2.484031
5.911810 0.775390 -2.798602
3.988234 2.092248 -2.436199
3.774770 2.170374 -2.420513
3.330662 2.418069 -2.669372
5.894735 0.791203 -2.815874
6.320957 0.755930 -3.099760
5.216225 1.919750 -2.066150
4.304976 2.016805 -2.291063
5.881424 2.163947 -2.253808
5.919034 0.714787 -2.708876
9.610467 1.468981 -1.994412
3.730013 2.184158 -2.457563
4.014057 2.242448 -2.452215
4.102468 2.131517 -2.392670
5.892226 0.608657 -2.653573
4.399579 2.444200 -2.609737
3.955559 2.137533 -2.413074
5.969625 2.144952 -2.221248
1.719066 1.796389 -2.328572
1.357336 1.905258 -2.396304
9.341335 2.087555 -1.897416
9.487010 2.116753 -1.829911
5.827987 0.624432 -2.608278
5.952977 0.785406 -2.855793
6.197436 0.754023 -3.000568
5.816551 0.625238 -2.603099
5.911390 0.610342 -2.657713
9.554173 1.623726 -2.102996
9.040272 2.022028 -1.854818
4.440930 2.532633 -2.678909
9.263142 1.757526 -1.652279
5.912224 0.625645 -2.651396
5.394282 1.438887 -1.677776
1.685283 1.715080 -2.062479
1.838145 1.743943 -2.162791
3.934829 1.794572 -1.544004
4.572086 2.587180 -2.725729
3.788873 2.167190 -2.442535
3.931356 1.789066 -1.543758
5.914037 2.178697 -2.277397
3.980898 2.118620 -2.462396
3.761641 2.072976 -2.371503
3.760486 2.064270 -2.368663
4.715092 3.137378 -3.153968
3.781743 2.137434 -2.424041
2.853966 2.049188 -2.604626
1.421678 1.865810 -2.201600
3.973522 2.115176 -2.469790
2.122461 0.997403 -2.945706
7.623993 2.638689 -2.488674
2.833289 2.069925 -2.631618
4.037312 2.187683 -2.445507
2.523724 1.867354 -2.363688
4.225915 2.286740 -2.484425
4.734906 3.016336 -3.035718
3.957791 1.601711 -1.844430
2.423689 2.109443 -2.562195
4.352338 2.078574 -2.304799
2.013335 0.947381 -2.883023
3.994445 1.948934 -2.330980
3.838308 1.947205 -2.300499
3.958200 1.987058 -1.936973
5.124715 2.303268 -2.456562
3.990630 2.868759 -2.952904
2.128576 2.115492 -2.600087
2.870820 2.710711 -2.885199
4.877607 0.298712 -2.502160
4.234315 2.071469 -2.327833
7.143669 0.308482 -2.613714
5.921339 0.643952 -2.609300
5.944513 0.776001 -2.825413
4.939067 0.266539 -2.623627
4.923123 0.279193 -2.558754
6.878927 0.451694 -2.195008
7.174641 0.428048 -2.258643
7.115505 0.386064 -2.268194
6.133571 1.539982 -1.673492
8.935717 1.143650 -2.206466
2.528210 1.765777 -2.248797
4.400760 1.730517 -2.005341
6.588073 0.740118 -2.437549
0.566149 1.004572 -4.052578
9.279860 0.867273 -2.320286
6.788480 0.482579 -2.144695
7.052127 0.318563 -2.581908
6.560242 0.430629 -2.356741
6.607075 0.421806 -2.381751
5.935106 0.664765 -2.679165
5.525620 1.805869 -1.968980
4.902557 0.297276 -2.519866
4.968357 0.238697 -2.684084
4.932606 0.327253 -2.626295
4.879681 0.309106 -2.491858
4.875472 0.298946 -2.501287
9.861996 0.836039 -2.367783
9.499881 1.324612 -2.132181
9.041050 1.954311 -1.757287
5.352669 1.779957 -1.954551
5.122874 0.271635 -2.599180
6.912008 0.342486 -2.518679
5.920704 0.641816 -2.612128
6.167542 1.549232 -1.682227
7.732255 2.059792 -1.995568
4.913914 0.269487 -2.562288
1.643766 2.135171 -2.668562
1.854084 1.758791 -2.273314
6.022667 2.113719 -2.217314
6.234237 1.621823 -1.722099
0.481384 1.008284 -4.120660
2.166675 0.994909 -2.994332
6.844546 0.491595 -2.148591
6.763972 0.487051 -2.123750
5.977163 0.658561 -2.713683
5.028647 0.228105 -2.720497
6.699121 0.404439 -2.421280
4.939758 0.324525 -2.634404
3.193350 3.092676 -1.251788
6.615179 0.418289 -2.388271
7.128980 1.998887 -1.989600
2.963489 1.896418 -1.986250
2.935909 1.933080 -2.008884
7.408760 2.106368 -2.010092
2.655123 2.184735 -0.705713
6.622309 1.850396 -1.890828
3.679144 2.187423 -2.466725
3.739083 1.981250 -2.300711
4.667336 2.467156 -2.575701
6.842026 1.858742 -1.583001
9.243273 2.186424 -1.986598
4.003639 2.099871 -2.459961
6.086419 2.189543 -2.279891
2.650751 2.211574 -0.686905
3.063224 1.906398 -1.984530
1.060948 2.077329 -2.651608
1.539939 1.869148 -2.448506
5.426274 2.026364 -2.154656
3.724242 1.999885 -1.158810
3.957634 1.757922 -1.399159
6.353898 2.421694 -2.462447
4.390367 2.113802 -2.368667
8.889631 2.462685 -2.191768
3.923076 2.157834 -2.442955
3.967140 2.145570 -2.450698
5.695312 2.112617 -2.212200
5.474451 2.230158 -2.323672
7.655241 2.159773 -2.062202
7.547469 2.329533 -2.218231
2.879026 2.221994 -2.634254
3.716129 2.165708 -2.467242
2.587286 1.961461 -2.429374
5.491285 2.167162 -2.324942
1.952029 1.020493 -3.181081
4.781236 2.166423 -2.385533
3.177269 1.907543 -2.272701
3.830415 2.095424 -2.366443
2.035260 1.002727 -3.115178
2.847370 2.140434 -2.554475
2.027822 0.993645 -3.064365
1.157512 1.980749 -2.496306
4.300650 1.449234 -1.711683
4.684299 2.284760 -2.452533
4.637756 2.256001 -2.418880
2.533409 1.780695 -1.108619
8.559745 2.509818 -2.274568
2.412112 2.006305 -0.966371
5.793072 2.672724 -2.649416
2.026028 1.933534 -1.998656
2.320959 1.893382 -1.960538
2.059711 2.049971 -2.669374
4.124024 2.205210 -2.471288
3.101684 1.977150 -2.365041
4.039254 1.786048 -1.819576
3.386236 1.975497 -2.361527
2.570745 2.172385 -2.628338
2.337596 2.209444 -2.665850
4.564798 2.436564 -2.642115
7.193014 2.690139 -2.565316
4.047787 1.692632 -2.062604
2.470079 1.981980 -2.461646
6.155744 2.607823 -2.644592
3.805768 2.047975 -2.372259
6.259428 2.333386 -2.404734
4.046831 1.690879 -2.061392
2.455529 2.149703 -2.610243
2.262648 2.243248 -2.698567
2.252598 2.271883 -2.720211
0.024668 12.196080 -8.279511
6.879086 2.237732 -2.269388
7.430484 2.467990 -2.415526
3.695113 2.159445 -2.457167
3.696239 2.204307 -2.500453
22.338022 3.953487 -2.115197
5.885100 2.174163 -2.283396
5.948458 2.165702 -2.275601
5.762748 2.169520 -2.299535
4.735158 1.817567 -1.792043
3.230463 1.881051 -2.278716
2.583022 2.680333 -0.335586
8.849533 2.046780 -1.821159
2.636758 2.387997 -0.545058
5.214739 2.254049 -2.430327
6.035317 0.746070 -2.862638
8.221453 1.645895 -1.594552
1.563387 1.935402 -2.500515
6.070697 2.175529 -2.280570
9.793652 1.687868 -1.987037
8.189656 1.571130 -1.805120
6.842163 0.718440 -2.690221
7.205284 0.712477 -2.859991
5.911600 0.650147 -2.617962
3.983953 2.038591 -2.321579
3.496575 2.359036 -2.610250
11.424842 1.980431 -1.396168
4.192029 2.189430 -2.392603
4.179597 2.084955 -2.350505
9.465905 0.612996 -2.105586
9.389709 2.090075 -1.787080
6.587609 0.451234 -2.356400
4.122043 2.023025 -2.296816
9.154021 1.111779 -2.274022
4.749936 2.069007 -2.296611
9.248490 1.534104 -2.006543
4.914011 0.358296 -2.537977
7.255575 1.744001 -1.716785
5.555202 1.737629 -1.922641
4.319154 1.722122 -1.999942
4.376118 2.108303 -2.320531
5.933444 0.777973 -2.814119
4.505558 1.919377 -1.861305
3.308661 2.030619 -2.390474
2.109324 2.033009 -2.525385
5.933681 0.609365 -2.738766
4.200669 1.943432 -1.911980
7.340880 0.707789 -2.926669
4.282914 2.017992 -1.953002
5.020287 2.773600 -2.944912
3.873860 2.118036 -2.387447
6.928181 0.664041 -2.972402
4.633507 2.271314 -2.498089
6.391155 1.692406 -1.739853
3.766807 1.774680 -1.558993
5.040847 3.303303 -3.319338
4.793826 2.641594 -2.833776
4.850482 2.449039 -2.651708
4.002546 2.161606 -2.429630
9.331296 1.319092 -2.238812
10.178506 0.665503 -2.348565
8.935256 1.043317 -2.266419
5.932310 0.776757 -2.814995
2.455547 2.800706 -3.210460
10.845744 1.750926 -1.413553
4.318063 1.719494 -1.996847
4.854459 1.625191 -1.833747
5.082021 2.293545 -2.071489
4.294984 1.923361 -2.202377
4.448255 1.842496 -2.106420
6.552708 0.703702 -2.747792
6.254667 2.856637 -2.898799
4.128041 2.134248 -2.406289
4.237795 2.030541 -2.281348
7.343498 0.707186 -2.928678
6.963046 0.690550 -2.975129
7.155685 0.685106 -3.080448
6.724733 0.671255 -2.818959
6.323645 1.671720 -1.721067
6.313143 2.233358 -2.194161
3.885083 2.091789 -2.364731
4.951887 0.359215 -2.528188
5.948467 0.755083 -2.783578
9.447250 0.997338 -2.197328
9.223420 1.001637 -2.276648
10.385815 1.574208 -1.249912
4.871341 0.302582 -2.492961
3.766499 1.778037 -1.561379
9.020210 1.154649 -2.222585
9.031405 1.130077 -2.270271
9.976884 1.643408 -2.077128
7.236158 0.708086 -2.873723
7.605654 2.056413 -1.985453
5.296209 2.109661 -2.278388
3.965486 1.746098 -1.396485
9.089454 0.902093 -2.287267
3.948846 2.051949 -2.004920
3.224242 2.118932 -2.013613
10.955055 1.877146 -1.413748
6.956087 0.690271 -2.972008
7.189130 0.683648 -3.099476
6.831656 0.687258 -2.953701
4.349721 1.808182 -2.083807
4.396060 1.721552 -1.994748
2.838464 2.307842 -0.518520
7.417594 2.252380 -2.157510
4.015895 2.129328 -2.399536
4.129373 2.147989 -2.420159
10.911757 1.901845 -1.500118
9.352188 1.583966 -2.051760
5.942966 0.776999 -2.822805
4.974247 0.334705 -2.604060
4.923501 0.339532 -2.586053
4.006666 2.008086 -2.288550
4.932895 0.284662 -2.592942
8.355670 2.302629 -2.145704
3.175195 2.048118 -2.422307
9.294342 1.323673 -2.167792
9.544270 1.562577 -2.015132
3.299422 2.804402 -1.230059
18.133638 2.553833 -1.381097
9.733627 2.793448 -2.565860
6.668514 0.699928 -2.812139
7.049717 0.686811 -3.024433
6.212462 1.567042 -1.706901
6.836169 2.656703 -2.628589
4.873260 0.311713 -2.485293
5.796398 2.072272 -2.188774
4.911288 0.275717 -2.552887
3.982940 2.087154 -2.371517
10.777328 1.844488 -1.414449
4.918774 0.357344 -2.559400
4.327594 2.061640 -2.325476
4.457969 1.864676 -2.127164
10.976259 1.755801 -1.419260
5.946443 0.778116 -2.823853
4.015649 2.164449 -2.433120
9.220180 1.279966 -2.200484
8.774778 1.087597 -2.175729
6.827897 0.483216 -2.157700
6.604419 0.435223 -2.364519
3.235074 2.973026 -1.227722
9.148683 0.857891 -2.325707
9.306552 1.377473 -2.139986
7.265295 0.706329 -2.889045
9.065269 0.898542 -2.286627
3.246550 3.461041 -2.066576
6.683059 0.455765 -2.329461
9.001881 1.950375 -1.748319
6.607075 0.421806 -2.381751
6.088517 0.591707 -2.871472
10.733883 1.840712 -1.410416
7.256671 1.914104 -1.890141
6.072733 1.528879 -1.651742
7.056946 3.577114 -3.495513
5.495261 1.785338 -1.955337
5.637699 0.317905 -2.481508
4.895291 0.304290 -2.553013
4.877595 0.311279 -2.487293
-0.089488 1.156384 -2.582776
-1.413218 1.757061 -2.763565
-1.580041 1.521867 -2.995241
-1.326854 0.895882 -3.174387
-1.703291 0.528906 -3.555106
-0.634156 1.536640 -2.530651
-1.253475 1.272050 -2.842528
-1.409878 1.464376 -2.908286
-1.239097 1.362468 -2.825010
-1.354737 1.677575 -2.246628
-0.728450 0.925990 -2.692629
-0.573293 0.895109 -2.678108
-1.075754 1.088785 -2.601352
-1.807483 1.142728 -2.903204
-1.123118 1.591133 -2.592441
-1.484753 1.760830 -2.738627
-0.757502 0.707130 -3.004237
-0.624085 0.840172 -2.714386
-0.342153 0.576795 -2.731229
-0.703380 0.719848 -2.941555
-0.875066 1.240921 -2.606329
-1.637256 1.154979 -2.824241
