-3.302575 -1.267779 2.227394
-2.991832 -2.282385 1.822576
-1.067019 -0.982667 0.849364
-0.211432 -0.823093 0.777132
-0.109836 -0.166320 0.388744
-0.300658 -0.827090 0.929042
-0.446175 -0.828724 0.927209
-0.581445 -1.126966 1.197283
-0.420432 -0.790094 0.846101
-0.725598 -0.403310 0.978825
-2.690646 -0.913761 1.874817
-2.651276 -0.890492 1.861627
-0.273118 -1.050120 1.160301
-0.251735 -0.825752 0.920224
-0.241728 -0.707636 0.794913
-0.464281 -1.016216 1.127695
-0.318195 -0.719339 0.798429
-0.400300 -0.850491 0.936420
-0.444653 -0.783263 0.866674
-0.545617 -0.590338 1.026068
-0.550985 -0.904944 1.025697
-0.560188 -0.908315 0.984002
-0.816700 -0.493564 1.271047
-1.831469 -0.957568 2.096550
-1.102424 -0.533069 1.278046
-1.904729 -0.806385 1.943303
-1.248892 -0.934449 1.149412
-2.806960 -1.091795 1.930919
-2.340310 -1.020873 1.570178
-3.337113 -0.933450 2.250536
-3.345131 -1.045939 2.114529
-3.253257 -1.020228 2.085431
-0.227193 -0.929187 1.010140
-0.296894 -1.000827 1.058542
-0.248446 -0.873773 0.920501
-0.276944 -0.916152 1.000000
-0.337421 -0.953020 1.020041
-0.371520 -0.846446 0.895447
-0.584151 -1.054804 1.151903
-0.550473 -0.926343 0.991870
-0.526485 -0.915554 0.980446
-0.510969 -0.774291 0.873970
-0.569244 -0.830792 0.922228
-0.743975 -0.571033 1.158774
-0.683789 -0.765533 1.054126
-0.854229 -0.558008 1.292943
-1.110294 -0.957255 1.558591
-1.072968 -0.944998 1.529721
-0.328905 -0.026857 0.408591
-1.493364 -0.791069 1.849377
-1.584490 -0.820650 1.918622
-1.712525 -0.896770 2.019664
-1.028358 -0.527987 1.223449
-0.949227 -0.416877 1.109273
-1.974084 -0.938808 2.195242
-1.657944 -1.191412 1.757857
-1.768278 -0.740439 1.832059
-2.741379 -0.806576 2.024016
-3.039312 -1.065124 2.145120
-0.959423 -0.711088 0.666799
-2.959028 -1.056264 1.975914
-2.947208 -1.032086 1.977596
-1.940388 -0.832547 1.292497
-2.363597 -0.943620 1.497593
-3.263546 -1.308295 2.091952
-0.959331 -0.746460 0.611914
-0.889278 -0.688324 0.420391
-0.150668 -0.692409 0.778021
-0.254086 -0.924937 1.001715
-0.209752 -0.793228 0.862382
-0.420256 -1.066207 1.168737
-0.322829 -0.872013 0.832196
-0.427276 -0.897457 1.038175
-0.398393 -0.847039 0.943703
-0.407518 -0.841527 0.941351
-0.365719 -0.809314 0.863126
-0.426606 -0.940052 1.010180
-0.531501 -1.006455 1.091122
-0.587962 -0.955895 1.065663
-0.491091 -0.800517 0.903192
-0.538541 -0.905123 0.976828
-0.518469 -0.872574 0.953041
-0.503636 -0.700861 0.803364
-0.615549 -0.850368 0.947429
-0.648726 -0.953282 1.008905
-0.617518 -0.876390 0.960905
-0.860943 -0.567996 1.289053
-0.172717 -0.301094 0.252809
-0.705442 -0.994721 1.058187
-0.290705 -0.630235 0.412250
-0.442933 -0.783608 0.602412
-0.898194 -0.439963 1.132680
-0.971068 -0.889945 1.155947
-1.039333 -0.962763 1.246835
-1.518459 -1.311980 1.715758
-1.084228 -0.501617 1.176991
-2.447119 -0.899705 2.237239
-2.381776 -0.996530 2.199671
-0.878501 -0.806754 0.797757
-2.174700 -0.813464 1.668868
-2.174340 -0.566878 1.579584
-3.524111 -1.001214 2.513391
-0.940770 -0.701309 0.665365
-3.838031 -1.001032 2.620870
-2.430438 -0.931877 1.588024
-2.784865 -1.102605 1.724171
-4.621732 -1.146173 2.067467
-0.684253 -0.438458 0.298258
-1.658288 -0.682641 0.633627
-0.305400 -0.937258 1.011035
-0.320330 -0.990805 1.048066
-0.312305 -0.969874 1.033939
-1.139547 -0.661846 1.560109
-1.059324 -0.627579 1.472836
-0.175244 -0.379570 0.953953
-0.177391 -0.377371 0.965886
-0.250233 -1.008146 1.062194
-0.297478 -1.003772 1.053704
-0.306810 -0.995894 1.053386
-0.279123 -0.801238 0.907555
-0.542566 -0.988395 1.101503
-0.492844 -0.792868 0.880621
-0.603158 -0.938239 1.058782
-0.534365 -0.803833 0.884028
-0.801184 -0.667071 1.261075
-0.844227 -0.579987 1.284878
-0.948989 -0.836975 1.404591
-0.826294 -0.734816 1.237559
-0.842060 -0.448087 1.158903
-0.537433 -0.288664 0.724891
-1.404611 -0.838813 1.779896
-1.441028 -0.767357 1.809225
-1.465192 -0.896112 1.831036
-1.678134 -0.839483 1.971004
-1.761809 -0.846961 2.077415
-1.733047 -0.910859 2.026465
-1.790106 -0.921422 2.075227
-1.339987 -0.884732 1.560099
-0.925187 -0.497674 1.072610
-1.892954 -0.915196 2.139961
-1.935317 -0.912189 2.169834
-1.260787 -0.657638 1.385043
-0.684378 -0.600878 0.742659
-1.569755 -0.709338 1.578132
-1.920138 -0.856759 1.937538
-0.497266 -0.699912 0.427141
-1.030242 -0.843046 0.841815
-2.725803 -1.078637 1.889611
-3.171769 -1.270646 2.176913
-1.002461 -0.790064 0.679583
-3.452341 -0.983012 2.299669
-2.551874 -0.623241 1.445393
0.091134 0.153434 0.194931
0.674268 -1.795420 1.426871
0.384119 -1.021666 0.805362
0.127536 -0.303260 0.241221
0.217229 -0.508980 0.400050
0.124126 -0.216926 0.177399
0.230533 -0.453267 0.374962
0.322855 -0.644750 0.524090
0.326915 -0.594425 0.511658
0.113787 -0.217454 0.184732
0.246966 -0.351001 0.239911
0.596723 -0.829106 0.563395
0.164622 -0.239860 0.166306
0.372545 -0.510940 0.334974
0.152219 -0.264610 0.198021
0.044847 -0.051843 0.158687
0.065030 -0.062903 0.198284
0.267774 -0.963474 0.606965
0.707691 -0.891551 0.529660
0.082184 0.138431 0.181985
0.176074 0.076609 0.153258
0.092869 0.156449 0.195845
0.504689 0.018176 0.231767
0.488183 0.023594 0.233822
0.012367 0.229262 0.183056
0.928380 -1.219561 0.761661
-0.023195 -0.119675 0.343681
-0.036743 -0.174252 0.442401
0.070101 -0.142893 0.416547
0.034742 -0.094669 0.268087
0.058669 -0.061711 0.255921
0.156140 -0.248294 0.182907
1.112061 -1.728463 1.280196
0.508736 -0.764456 0.551230
0.270112 -0.417679 0.300662
0.387201 -0.631697 0.482611
0.148003 -0.251065 0.200454
0.414610 -0.782827 0.625458
0.159272 -0.319135 0.202410
0.123427 -0.222661 0.186658
0.219399 -0.837706 0.545801
0.122727 -0.622052 0.659179
0.227361 -0.856647 0.944402
0.117693 -0.521985 0.530142
0.394327 -1.007658 0.846786
0.187101 -0.945139 0.665583
0.122697 -0.680321 0.498521
0.230469 -0.418630 0.265231
0.108880 -0.356761 0.750865
0.117337 -0.326178 0.642055
0.498742 0.005487 0.261064
0.177788 -0.061840 0.395421
0.164630 -0.031939 0.194391
0.182779 -0.022559 0.151935
0.335989 -0.375397 0.183076
0.013371 -0.084286 0.175751
0.207550 -0.276539 0.174921
0.579455 -1.096581 0.947601
0.122209 -0.222078 0.186003
0.128314 -0.231386 0.192450
0.156947 -0.679965 0.443746
0.669260 -1.899561 1.972608
0.226124 -0.480681 0.443050
0.142363 -0.299007 0.270415
0.297808 -1.284146 1.296366
0.327362 -1.329721 1.309546
0.137939 -0.369785 0.376623
0.212157 -0.811988 0.530054
0.202457 -0.750410 0.479265
0.168970 -0.292542 0.243362
0.318316 -0.578282 0.499099
0.111665 -0.214441 0.182501
1.160010 -1.664158 1.159145
0.526825 -0.771492 0.543418
0.360396 -0.495531 0.325841
0.877814 -1.652493 1.315362
0.140028 -0.227904 0.180875
0.208701 -0.349324 0.275624
0.587407 -0.786096 0.498547
0.536376 -1.412572 1.106301
0.150141 -0.666750 0.488258
0.052731 -0.612750 0.534629
0.100725 -0.370201 0.394528
0.385767 -1.078924 0.875181
0.072661 -0.455420 0.380606
0.539091 0.131640 0.247746
0.621011 0.153094 0.290676
0.386443 -0.044412 0.622658
0.057967 -0.122948 0.090438
0.057276 -0.122208 0.089964
0.302060 -0.479626 0.363779
0.340212 -0.542190 0.411739
0.246821 -0.349307 0.242822
1.232944 -1.616061 1.008492
-0.017283 -0.090622 0.258704
-0.017121 -0.065397 0.185331
0.060481 -1.010818 0.927731
0.096397 -1.493291 1.357797
0.092943 -1.108853 1.026980
0.063052 -0.913534 0.846049
0.084165 -0.838118 0.716806
0.198592 -1.163322 0.873195
0.084039 -0.150351 0.125501
0.084788 -0.154122 0.130066
0.122293 -0.198082 0.136490
0.346784 -0.561793 0.384942
0.143110 -0.284386 0.200946
0.721669 -1.675180 1.228491
0.118369 -0.191131 0.147617
0.287168 -0.473768 0.364433
0.118086 -0.193680 0.134576
0.583561 -0.871422 0.612893
0.527103 -0.802789 0.586287
0.017678 -0.027806 0.081337
0.061670 -0.269388 0.556366
0.017219 -0.124156 0.258194
0.010865 -0.083170 0.271342
0.007707 -0.071166 0.190476
0.015097 -0.065180 0.179139
-0.003572 -0.032978 0.083699
0.111046 -0.698244 0.874838
0.113734 -0.214343 0.184661
0.785354 -1.496037 1.298432
0.087895 -0.467052 0.344401
0.118464 -0.656408 0.482522
0.054881 -0.305515 0.228920
0.220613 -1.196378 0.865839
0.232630 -1.275129 0.916906
0.367665 -2.247369 1.703940
0.101081 -0.618632 0.466460
0.199989 -0.734059 0.467332
0.235023 -0.847615 0.534987
0.211368 -1.054962 0.739506
0.241495 -1.144379 0.796853
0.107223 -1.447694 1.297354
0.383819 -0.920857 0.901782
0.226380 -0.502980 0.474991
0.112596 -0.438373 0.438683
0.226154 -0.933979 0.928299
0.220827 -0.517172 0.474842
0.251155 -0.524450 0.481328
0.272150 -0.579773 0.534964
0.263302 -0.846819 0.916181
0.133766 -0.396180 0.419733
0.061900 -0.273829 0.284503
0.115496 -0.509662 0.518599
0.127575 -0.319700 0.303862
0.147870 -0.363172 0.341342
0.100056 -1.070394 0.981629
0.087322 -1.207819 1.115327
0.200784 -1.002027 0.684488
0.296763 -1.444151 0.973389
0.180058 -0.860762 0.590297
0.177383 -0.779807 0.518739
0.184130 -0.728550 0.463950
0.229042 -0.916683 0.595853
0.137373 -0.528537 0.345145
0.211758 -1.350135 1.034408
0.155266 -1.015251 0.785225
0.168976 -1.152240 0.874779
0.135648 -0.718373 0.509541
0.055133 -0.133366 0.106512
0.314546 -0.574173 0.494969
0.079563 -0.139683 0.114817
0.080480 -0.135258 0.109323
0.168743 -0.292724 0.243311
0.127121 -0.228412 0.190599
0.351991 -0.642502 0.542461
0.075785 -0.151589 0.125734
0.130786 -0.185447 0.125563
1.101315 -1.569945 1.050180
0.538242 -0.760951 0.529248
0.464678 -0.627308 0.404098
0.625307 -0.832010 0.529330
0.213468 -0.293412 0.193022
0.638223 -0.872175 0.570965
0.077637 -0.147104 0.114268
0.097468 -0.194225 0.137247
0.872763 -1.379151 1.017159
0.021062 -0.102438 0.205720
-0.061530 -0.702832 0.990720
0.010533 -0.697885 0.408784
0.106483 -0.377729 0.415365
0.276916 -0.976924 1.092949
0.023244 -0.028045 0.085329
-0.004934 0.098974 0.127434
-0.005743 -0.034871 0.087731
0.091912 -0.104064 0.312904
0.127480 -0.463097 0.423913
0.145078 -0.520979 0.473145
0.055912 -0.056765 0.171212
0.125378 -0.547597 0.638306
0.098410 -0.578643 0.474592
0.082868 -0.342335 0.395976
0.006918 -0.064108 0.212361
0.011189 -0.085195 0.278290
0.201150 -0.557568 0.575095
0.038076 -0.033984 0.107997
0.165931 -0.433631 0.446918
0.180978 -0.738796 0.479604
0.308423 -0.411403 0.261615
-0.024625 -0.064644 0.156740
-0.003302 -0.078914 0.242924
0.085120 -0.818083 0.681982
0.146398 -1.190298 0.986422
0.121038 -1.093922 0.903269
0.180263 -1.224020 0.940655
0.407168 -1.412915 1.568635
0.385043 -1.251417 1.367078
0.335921 -1.111787 1.227422
0.503486 -2.395406 1.648916
0.215995 -1.076248 0.737509
0.197165 -0.937554 0.639970
0.342243 -0.827860 0.827597
0.349536 -0.879347 0.879029
1.273292 -2.410249 2.089782
0.345661 -0.641519 0.548516
0.116001 -0.218012 0.187238
0.159960 -0.251187 0.192326
0.158326 -0.240519 0.175726
0.589992 -0.880661 0.619039
0.125969 -1.183837 1.068034
0.188636 -1.595858 1.428418
0.169926 -1.403109 1.133833
0.076952 -0.513141 0.435250
0.123514 -1.159136 0.984098
0.032352 -0.209021 0.175416
0.039838 -0.250708 0.208688
0.379402 -0.902173 0.812402
0.429085 -1.142652 0.908079
0.092531 -0.292907 0.316420
0.158651 -0.476884 0.506322
-0.448196 -0.705396 0.809501
-0.313762 -0.881993 0.975181
-0.344944 -0.919436 1.031470
-0.452641 -0.960310 1.052985
-0.369379 -0.768228 0.860222
-0.170987 -0.136194 0.159626
-1.313162 -0.928782 1.279165
-0.510640 -0.447679 0.620446
-1.271364 -0.617494 0.564821
-2.029161 -0.987333 0.905405
-1.669130 -0.789806 0.710158
-2.034725 -0.841372 0.779334
-1.991827 -0.809401 0.759151
-1.689657 -0.684101 0.646952
-0.631140 -0.100771 0.245845
-0.646343 -0.698896 0.418720
-0.435483 -0.658564 0.398442
-0.766260 -0.739482 0.294330
-0.695254 -0.493097 0.259043
-0.208967 -0.721795 0.768967
-0.323996 -0.949172 1.055781
-0.208419 -0.750085 0.828272
-0.112076 -0.783601 0.468337
-0.150561 0.076587 0.157008
-0.147203 0.122367 0.129522
-0.651060 -0.105010 0.252364
-1.362279 -0.675786 0.641765
-1.274347 -0.633544 0.602069
-1.570468 -0.740261 0.668933
-2.328313 -1.102479 0.994675
-0.642167 -0.373720 0.875642
-0.691513 -0.422884 0.941975
-0.903589 -0.670756 0.630842
-0.763029 -0.893677 0.816576
-0.769911 0.026981 0.304278
-0.250843 -0.055069 0.474840
-0.643136 -0.230438 0.231887
-1.083851 -0.528993 0.487167
-1.508363 -1.106302 1.009747
-1.038393 -0.809037 0.671106
-0.987369 -0.721673 0.690811
-1.521523 -0.933699 0.951648
-0.559425 -0.992593 0.982507
-0.910359 -0.550372 0.686614
-1.638083 -0.786157 0.878198
-0.701869 -0.915478 1.062968
-1.634222 -0.771822 0.702967
-1.250023 -0.606965 0.555391
-0.988500 -0.441732 0.430713
-1.674909 -0.743634 0.709464
-2.038851 -0.896447 0.854717
-1.693137 -0.808978 0.772444
-1.828268 -0.789467 0.716702
-1.164025 -0.490756 0.458890
-0.261959 -0.167861 0.114054
-3.250912 -0.525139 1.455050
-0.635773 -0.700923 0.421615
-0.365576 -0.769057 0.460519
-0.273291 -0.272833 0.134388
-0.181551 0.079554 0.156033
-0.361368 -0.033470 0.435584
-0.291732 -0.842405 0.953462
-0.053542 -0.116710 0.220883
-0.279781 -0.967796 1.017250
-0.700110 -0.496087 0.260233
-1.089855 -0.826233 0.500361
-1.793821 -1.740012 0.719044
-0.395403 -0.743579 0.452006
-0.418019 -0.798737 0.474882
-0.390031 -0.768131 0.456710
-0.404427 -0.666032 0.409574
-0.767127 -0.750833 0.386100
-0.916737 -0.905965 0.529815
-0.472876 -0.482726 0.291197
-0.816715 -0.803328 0.414827
-0.656033 -0.103790 0.250389
-0.910757 -0.652685 0.409316
-1.668435 -0.675873 0.639328
-1.870982 -0.753470 0.706803
-1.856953 -0.751018 0.707231
-2.002229 -0.840541 0.814028
-1.255772 -0.606736 0.583934
-1.012682 -0.440227 0.431342
-2.100580 -0.987200 0.889560
-1.750664 -0.823257 0.742427
-0.131819 -0.104248 0.116298
-0.361048 -0.360097 0.601298
-0.248991 -0.617954 0.693676
-2.811895 -0.716040 1.888804
-2.209027 -0.720682 1.660507
-0.292698 -0.628653 0.438441
-0.798938 -0.675810 0.719832
-0.446583 -0.978568 1.033501
-0.437766 -0.947975 1.024216
-0.375158 -0.987517 1.065112
-0.402455 -0.939681 1.015345
-0.662152 -0.978793 1.031485
-0.364411 -0.281352 0.219328
-0.964363 -0.709796 0.657249
-0.067433 -0.166399 0.402706
-0.237029 -0.846632 0.931292
-0.301216 -0.863426 0.960338
-0.175157 -0.518389 0.577887
-0.483755 -0.822323 0.925707
-0.387249 -0.608675 0.680304
-0.486648 -0.744374 0.809006
-0.596334 -0.946392 1.028248
-0.810648 -0.431148 1.004428
-0.537492 -0.289904 0.674805
-1.185859 -0.673548 0.463284
-0.080519 -0.198769 0.381410
-0.387118 -1.041886 1.166448
-0.373681 -0.942425 1.041861
-0.300191 -0.813123 0.776621
-0.402626 -0.868222 0.965641
-0.339518 -0.732495 0.805106
-0.368231 -0.762749 0.853101
-0.504749 -0.923332 1.020454
-0.485311 -0.901491 1.002239
-0.463360 -0.741797 0.808398
-0.483612 -0.732546 0.824933
-0.494116 -0.794572 0.846384
-0.612809 -0.906675 0.974764
-0.313040 -0.678190 0.463078
-0.616510 -0.996544 0.910590
-0.923191 -0.938805 1.332413
-0.689323 -0.690162 0.992658
-0.516463 -0.273725 0.704347
-0.653058 -0.400447 0.890911
-1.040587 -0.524575 1.289605
-0.852206 -0.449851 1.035586
-0.679400 -0.806492 0.762182
-1.647713 -0.640432 1.530590
-0.857958 -0.721913 0.738459
-0.303012 -0.236240 0.205743
-2.147595 -0.932429 1.457811
-2.328430 -0.931120 1.475040
-0.214190 -0.052102 0.122576
-0.746140 -0.744335 0.409373
-0.770655 -0.575732 0.406397
-1.461230 -0.724929 0.688289
-1.489017 -0.730812 0.704830
-1.018237 -0.497242 0.481330
-1.325461 -0.638573 0.586690
-1.206489 -0.583897 0.537609
-0.958721 -0.664993 0.418099
-1.480502 -0.603007 0.571804
-1.430034 -0.581835 0.553540
-0.273914 -0.896609 0.979580
-0.272604 -0.914371 1.010595
-0.727711 -0.450771 0.932429
-1.363288 -0.854449 0.985453
-2.154125 -0.689922 1.516786
-0.869263 -0.630441 0.394308
-0.332341 0.082668 0.138182
-0.705570 -0.526823 0.270871
-0.673267 -0.155223 0.239284
-0.296325 -0.637336 0.444013
-1.059408 -0.974509 0.843438
-0.523354 -0.400949 0.308769
-0.324910 -0.250350 0.195877
-1.667168 -0.749086 1.584874
-0.306777 -0.348713 0.530886
-1.276498 -0.985880 1.137310
-2.018932 -0.901735 0.834849
-0.625322 -0.077482 0.270976
-0.158271 0.076563 0.156322
-0.261353 -0.029908 0.322418
-0.100212 -0.792306 0.462639
-0.917643 -0.736865 0.442605
-0.954697 -0.583897 0.314223
-0.380013 -0.745625 0.446048
0.092886 -0.614176 0.477341
-0.279599 -0.672813 0.411015
-0.397314 -0.755343 0.453834
-0.260184 -0.892512 0.983111
-0.313041 -0.736248 0.448182
-0.586141 -0.658586 0.407375
-1.479810 -0.735383 0.692581
-1.417353 -0.711603 0.677236
-3.554181 -0.890957 2.301074
-0.458812 -0.851325 0.927514
-1.357856 -0.775286 0.751560
-0.291178 -0.807184 0.715891
-0.633916 -0.300925 0.210902
-2.457269 -1.200925 1.089544
-1.390357 -0.690176 0.653489
-0.231842 -0.731406 0.815495
-0.175065 -0.856576 0.896212
-0.811094 -0.717211 0.381519
-0.793512 -0.683994 0.380060
-0.458024 -0.665001 0.398246
-0.772704 -0.759771 0.404759
-1.533050 -0.626865 0.593247
-1.716004 -0.601568 1.381859
-0.459002 -0.937505 0.889841
-0.848767 -0.591896 0.448802
-0.902440 -0.669848 0.629381
-1.051225 -0.960917 0.839345
-1.054053 -0.798804 0.796727
-1.705416 -1.011880 1.072682
-0.582434 -0.404901 0.313907
-0.489257 -0.342859 0.270159
-0.359914 -0.568966 0.607481
-0.554271 -0.853332 0.913877
-0.400309 -0.851760 0.927965
-2.265983 -0.627644 1.459965
-1.570714 -0.400370 1.036376
-7.948184 -2.035676 5.004267
-1.635659 -0.667623 1.047080
-0.614438 -0.340254 0.801361
-1.743271 -0.769392 0.731839
-1.350551 -0.598773 0.580237
-1.007382 -0.647872 0.459453
-0.849329 -0.549917 0.393599
-0.650484 -0.062855 0.266883
-0.501310 -0.704949 0.423750
-0.773327 -0.763028 0.400966
-0.886781 -0.796054 0.412688
-0.222990 -0.785247 0.822577
-0.263188 -1.069858 1.022152
-0.067113 -0.212179 0.337786
-0.116330 -0.771884 0.450510
-0.661959 0.008768 0.277734
-0.628494 0.005608 0.268802
-0.687641 -0.004948 0.290926
-0.428557 -0.621091 0.383414
-0.533126 -0.654154 0.396881
-0.635015 -0.102481 0.247456
-0.914141 -0.873349 1.089800
-0.495653 -0.411965 0.678430
-0.348853 -0.183302 0.466007
-0.243746 -0.157160 0.387195
-0.471566 -0.289063 0.655365
-0.157254 -0.042744 0.107639
-2.179948 -0.676157 1.624081
-2.572849 -0.926289 1.707528
-0.920470 -0.796169 0.819014
-0.458813 -0.851327 0.927517
-0.462152 -0.812851 0.859038
-0.852104 -0.586787 0.441987
-0.462468 -0.332438 0.734270
-1.178338 -0.475897 1.142086
-0.147431 0.122671 0.129692
-0.209124 -1.034331 1.082191
-0.446151 -0.646577 0.388363
-0.907271 -0.587262 0.421081
-0.920556 -0.642728 0.411301
-1.115592 -0.653458 0.458059
-1.176549 -0.532916 0.513556
-2.342124 -1.100499 0.996622
-2.108557 -0.540278 1.539107
-0.343348 -0.944337 0.896241
-1.166837 -0.694438 0.744454
-1.027951 -0.831865 0.767388
-1.168775 -0.864138 0.813040
-0.902861 -0.735744 0.690952
-1.729565 -1.043510 0.931084
-2.089949 -1.619967 1.284276
-1.270585 -0.960469 0.748804
-0.332958 -0.846396 0.893258
-0.452000 -0.295758 0.675194
-0.639286 -0.361313 0.832426
-0.479330 -0.389062 0.459446
-1.068421 -1.084911 1.261480
-1.330602 -0.663574 0.636249
-1.000440 -0.488334 0.473507
-2.059540 -0.974092 0.939442
-1.730265 -0.746228 0.678669
-1.294971 -0.734538 0.502368
-0.408069 -0.731513 0.443794
-0.679649 -0.486250 0.240690
-0.372984 -0.063929 0.504886
-0.647149 -0.023992 0.282583
-0.657327 0.002270 0.288050
-0.696836 -0.003073 0.294453
-0.630083 0.000328 0.269836
-0.663786 -0.017385 0.278942
-0.053932 -0.167364 0.269117
-0.212808 -0.740043 0.820430
-0.196010 -0.590332 0.655618
0.228124 -1.188913 0.937905
0.419860 -1.160974 1.218037
0.053939 -0.199464 0.225678
0.171007 -0.652618 0.421186
0.173537 -1.144774 0.896445
0.192947 -1.302487 1.010663
0.859242 -1.198535 0.797147
0.136729 -0.263052 0.178922
0.808575 -0.941496 0.491770
0.184136 -0.254939 0.167752
0.358538 -0.445277 0.257252
0.202257 -0.066723 0.279661
-0.821341 -0.401482 0.999609
-1.363324 -0.816115 0.741729
-3.244309 -1.083210 2.089828
-0.858355 -0.513092 1.189923
-0.635451 -0.683626 0.409275
-0.097865 -0.108080 0.223959
-1.455840 -0.586533 0.549597
-1.249738 -0.749541 0.680245
-3.105464 -0.646491 1.402412
-0.329348 0.147392 0.138526
-0.580758 -0.001072 0.261341
-0.942130 -0.576834 0.312769
-1.575745 -0.659185 0.631045
-0.152160 -0.097855 0.120698
-0.953893 -0.727989 0.580941
-1.383105 -0.664396 0.638561
-1.649118 -0.676970 0.635244
-1.563625 -0.645110 0.599017
-1.918692 -1.173421 0.635020
-0.409282 -0.749363 0.452478
-0.586229 -0.589278 0.329678
-0.643404 -0.696497 0.417741
-1.475704 -0.597051 0.564069
-0.725025 -0.378574 0.955208
-7.010003 -4.422567 9.238897
-1.533672 -0.857271 1.886328
-0.669568 -0.960517 1.068370
-0.903567 -0.571267 1.325766
-0.577330 -0.332261 0.844608
-0.367331 -0.184503 0.453310
0.123909 -0.801903 0.626654
0.236486 -1.491357 1.140605
0.040775 -0.324049 0.262769
0.083361 -0.469266 0.349534
0.099600 -0.476227 0.330797
0.112065 -0.375364 0.332362
0.001360 -0.050108 0.103248
0.877549 -0.031753 0.540254
0.034009 -0.018348 0.065338
0.798634 -0.151922 0.797831
0.029124 -0.019633 0.064698
0.057683 0.095453 0.115012
0.131907 -0.884009 0.691427
0.205170 -1.181921 0.878734
0.033772 -0.224163 0.175873
0.034916 -0.226041 0.175333
0.084348 -0.282752 0.310994
0.171342 -0.572193 0.630035
0.138031 -0.462429 0.508705
0.404750 -1.004466 0.829376
0.080800 -0.230341 0.244599
0.034916 -0.226041 0.175334
0.074804 -0.586281 0.475865
0.061273 -0.465737 0.370844
0.123315 -0.297777 0.288002
0.001170 -0.043761 0.089965
-0.049383 -0.150764 0.412195
-0.120633 -3.032227 1.164229
0.109575 -0.374937 0.420941
0.086088 -0.318455 0.360709
0.153929 0.003183 0.175596
0.123092 -0.015144 0.104354
0.448122 -0.080021 0.436035
0.042122 -0.017263 0.067208
0.114657 -0.567388 0.435153
0.040650 -0.317214 0.257555
0.027467 -0.225119 0.187233
0.030091 -0.244152 0.200577
0.028718 -0.232862 0.191311
0.027874 -0.226581 0.186117
0.021593 -0.074827 0.265264
0.042067 -0.070749 0.205138
0.150421 -0.087940 0.301307
-2.451134 -0.723193 1.628932
-0.276375 -0.571059 0.645991
-0.316031 -0.652239 0.737949
-0.393522 -0.874027 0.971051
-0.304707 -0.679689 0.768534
-1.604718 -0.667317 1.482198
-1.364416 -0.674727 0.650820
-1.863492 -0.882854 0.846236
-0.252528 -1.016251 1.073856
-0.376870 -0.591593 0.683364
-0.701488 -0.347706 0.900802
-0.711794 -0.712731 0.420682
-0.857725 -0.602647 0.385622
-2.205534 -1.027802 0.938998
-1.396291 -0.582139 0.566765
-0.273705 -0.787585 0.899483
-0.862926 -0.444611 1.026688
-1.218227 -0.593229 1.377176
-0.413271 0.188733 0.169777
-0.924413 -0.566285 0.306926
-0.863336 -0.641063 0.445300
-1.674675 -0.701041 0.672178
0.058931 -0.204405 0.229982
0.133311 -0.393285 0.417581
0.175843 -0.518858 0.463927
0.203254 0.010577 0.214604
0.216105 -0.012529 0.146490
0.110135 -0.714500 0.558234
1.228550 -2.930439 2.170887
-0.394832 -0.743027 0.445944
-0.987921 -0.616074 0.364264
-0.242941 -0.932205 1.024290
-0.114434 -0.039476 0.093502
-0.158743 0.282424 0.271675
-0.185595 -0.745928 0.819619
-0.996137 -0.696664 0.438775
-0.269853 -0.268891 0.133001
-0.219442 -0.222869 0.115356
-0.334623 -0.643532 0.301813
-1.041563 -0.480586 0.445837
-1.316033 -0.650544 0.627709
-1.223541 -0.585641 0.540372
-0.398662 -0.447155 0.625453
-0.672013 -0.332843 0.863040
-0.727384 -0.417281 0.938146
-2.821634 -1.173636 1.809727
-2.379478 -0.645859 1.603818
-2.292072 -0.588751 1.652827
-0.720116 -0.603671 0.637545
0.095069 -0.766755 0.635518
0.113381 -0.325639 0.347127
0.025974 -0.212170 0.176507
0.036125 -0.225155 0.173590
0.307117 -2.040601 1.600864
0.126356 -0.611164 0.464026
0.066431 -0.099844 0.296402
0.169167 -0.201971 0.110799
0.043317 -0.031985 0.105316
0.607259 0.149315 0.284942
0.620093 0.152349 0.290943
0.128563 -0.015548 0.107721
1.066571 -1.388519 0.867497
0.203799 -0.814965 0.530522
0.100456 -0.193454 0.559377
0.086271 -0.236919 0.191399
0.087677 -0.473991 0.347904
0.094022 -0.326566 0.292048
0.567178 -1.146606 0.809697
0.023521 -0.022756 0.069219
0.405076 -0.050778 0.343231
0.023234 -0.021293 0.065853
0.026814 -0.019893 0.065138
0.234578 -0.671475 0.685828
0.212250 -0.838061 0.535694
0.152170 -0.622716 0.398681
0.537393 0.013346 0.281167
0.165659 0.071950 0.149232
-0.389555 -0.225482 0.569514
-0.161913 -0.166567 0.347892
-0.401240 -0.256129 0.572050
-0.624493 -0.672861 0.402536
-0.640719 -0.692095 0.413552
-1.343205 0.084229 0.655065
-0.113142 -0.766868 0.448788
-1.506401 -1.451434 0.541284
-1.266333 -0.512680 0.482410
-2.126598 -0.867091 0.803432
-4.702537 -0.896284 2.123754
-0.173501 0.164566 0.134663
-0.188347 -0.714002 0.782691
-0.222007 -0.672806 0.752053
-0.730109 -0.541932 0.342163
-0.394163 -0.721164 0.435511
-0.172777 -0.137377 0.323010
-0.467895 -1.064780 1.192824
0.148611 -1.208076 0.992333
0.039290 -0.310061 0.257428
0.032140 -0.249717 0.202821
-0.499181 -1.037005 1.135241
-0.073801 -0.165499 0.317486
-1.655254 -0.668755 0.630452
-0.937519 -0.574332 0.311280
1.751226 -0.523990 2.295694
0.019715 -0.022528 0.068482
0.589372 -0.101451 0.561840
0.030811 -0.022795 0.074884
0.044273 -0.024107 0.085122
0.228207 -0.763827 0.853638
-0.077983 -0.244180 0.678375
0.369651 -1.064092 1.133491
0.034708 -0.120542 0.429567
0.093801 -0.261692 0.530369
0.120097 -0.333364 0.678588
0.010463 -0.079706 0.162235
0.038423 -0.312629 0.256782
0.149378 -0.982938 0.761312
0.100361 -0.574349 0.427156
0.057832 -0.193751 0.213138
0.052841 -0.195741 0.221361
0.303707 -1.121893 1.271242
0.315787 -0.184168 0.632790
0.082378 -0.036351 0.139286
-0.392049 -0.891266 1.013012
-1.892146 -0.765587 0.720773
-2.000896 -0.812580 0.762464
-1.767941 -0.716152 0.673531
-0.237710 -0.915704 1.006356
-0.281119 -0.022962 0.344829
-1.400050 -0.872907 0.516198
-0.093695 -0.049631 0.117629
-1.800347 -0.726146 0.685614
-0.670652 -0.137963 0.244595
-0.782947 -0.683158 0.934740
-1.244782 -0.619874 0.603792
-0.227611 0.223326 0.171190
-0.332372 -0.682590 0.410648
-0.320211 -0.603654 0.288900
-1.144904 -0.493131 0.482052
-1.882331 -0.761535 0.717027
-1.971211 -0.799946 0.751100
-1.282461 -0.614133 0.566427
-2.567422 -1.243978 1.135836
0.172060 -0.690414 0.449226
0.063588 -0.034433 0.122341
0.006696 -0.022245 0.060562
0.981302 -0.122504 0.831586
0.061046 -0.035710 0.122272
0.051516 -0.035970 0.119903
0.415318 -0.052024 0.351918
0.957027 -0.177314 0.952725
0.413880 -0.049394 0.342992
0.064058 -0.026105 0.098785
0.136135 0.114286 0.102675
0.209715 -0.244847 0.128434
0.936425 -0.118249 0.793299
0.038954 -0.244820 0.191883
0.063533 -0.025932 0.098302
0.035759 -0.228039 0.179167
0.379936 -2.417985 1.860145
0.346544 -2.326713 1.800233
0.096631 -0.462612 0.321788
-0.065497 -0.625968 0.874461
0.037384 -0.827026 0.468467
0.138362 -1.120760 0.928658
-0.101843 -0.309645 0.833973
0.033617 -0.226266 0.177567
0.033208 -0.223000 0.175042
0.203463 -1.358076 1.062495
0.064244 -0.096772 0.286432
0.416224 -0.083054 0.432877
0.444029 -2.299289 1.655057
0.195707 -0.390034 0.275808
0.141146 -0.159803 0.491631
0.052214 -0.047672 0.148113
1.593631 -1.702376 0.759733
1.434345 -1.532350 0.683822
0.212341 -0.846955 0.551555
0.094750 0.072135 0.123392
0.027022 -0.025929 0.081503
0.117900 -0.502398 0.329026
0.210255 -0.017821 0.148432
0.034531 -0.021578 0.072272
0.434637 -0.037215 0.307053
0.201157 -0.066589 0.278064
0.329014 -0.454141 0.299299
0.728522 -1.015722 0.675714
0.531778 -0.661527 0.392397
0.381147 -0.443737 0.232803
0.512857 -1.074808 0.714421
0.076418 0.127503 0.167525
0.029134 -0.019654 0.064711
0.179901 -0.021663 0.149028
-0.015904 -0.818427 1.127573
0.036636 -0.227812 0.179542
0.029174 -0.019738 0.064772
0.602830 0.018198 0.681611
0.305180 -0.052461 0.295663
0.057817 -0.312432 0.234134
0.138784 -0.350040 0.353301
0.714276 -1.694552 1.643798
0.082358 -0.294632 0.267508
0.096920 -0.307310 0.310775
0.170487 -0.458490 0.444701
0.057969 0.095909 0.115568
0.029139 -0.019626 0.064740
0.647350 0.020423 0.732491
0.034539 -0.021562 0.072298
0.027487 -0.020416 0.066761
0.288176 -0.372833 0.233727
0.218440 -0.890724 0.570191
0.005883 -0.064997 0.133113
0.077872 -0.515639 0.400707
0.029188 -0.241068 0.200388
0.081255 -0.230135 0.188041
1.002849 -2.324920 1.808920
0.087293 -0.183993 0.166599
0.127981 -0.163460 0.100183
0.747382 -0.855595 0.420874
0.197829 -0.787659 0.505816
0.136656 -0.622860 0.421650
0.180923 -0.797094 0.525037
0.190329 0.011651 0.200795
0.154053 0.128099 0.114662
0.789820 -0.901903 0.439441
2.322839 -2.373672 0.957111
0.087438 -0.835897 0.696275
0.197856 -0.807519 0.935451
0.221285 -1.093190 0.761526
0.174189 -0.563975 0.616224
0.070468 -0.223036 0.241492
0.258862 -1.240781 0.842046
0.207229 -0.648414 0.564783
0.226758 -0.703725 0.610633
-0.019570 -0.800456 1.108216
-0.006391 -0.184737 0.251734
0.036765 -0.308497 0.251258
0.161180 -1.393348 1.131104
0.071717 -0.968008 0.897723
0.049149 -0.769768 0.701999
0.103206 -1.212344 1.067172
0.087711 -1.013860 0.940348
0.234283 -0.622948 0.625242
0.043207 -0.032483 0.106957
0.050343 -0.122030 0.098347
0.062655 -0.120187 0.105607
0.203764 -0.076289 0.305158
0.116339 0.077929 0.146815
0.106929 -0.172897 0.133618
0.149131 -0.242780 0.184847
0.090972 -0.137395 0.100269
0.123315 -0.200081 0.136923
0.130582 -0.195465 0.143585
0.111065 -0.161248 0.111348
0.210203 -0.291171 0.197509
1.251299 -1.645551 1.020294
0.120107 0.080989 0.162792
0.561326 -0.863384 0.620909
0.069507 -0.104430 0.076974
0.169065 -0.255557 0.186126
0.120097 -0.157396 0.098300
0.451141 -0.584686 0.365728
0.184089 -0.240350 0.149647
0.172377 -0.220015 0.132979
0.175788 -0.223840 0.134637
0.166215 0.018963 0.118386
-0.059131 -0.175774 0.465446
-0.086461 -0.232396 0.615816
0.010279 -0.100362 0.332870
0.004884 -0.083227 0.271547
0.008502 -0.098997 0.318694
0.028813 -0.785524 0.459914
0.021002 -0.771617 0.451552
0.023293 -0.076496 0.217185
0.081151 -1.138271 1.025845
0.254704 -1.258191 0.882826
0.444061 -2.154775 1.499075
0.096566 -0.852285 0.772083
0.044405 -0.258875 0.209981
0.150554 -1.051347 0.837496
0.185388 -0.381960 0.347237
0.541333 -1.485343 1.195284
0.358820 -0.969361 0.773273
0.071792 -0.280430 0.280616
0.310862 -0.964857 1.019992
0.140068 -0.618149 0.610515
0.078869 -0.266810 0.254849
0.196274 -0.416726 0.390905
0.105709 -1.180341 1.069376
0.058053 -1.013726 0.943581
0.260554 -1.300969 0.889207
0.273219 -0.964123 0.624740
0.474822 -0.237279 0.873479
0.105607 -0.171474 0.135139
0.164693 0.004467 0.186956
0.396606 -0.531088 0.340826
0.212651 -1.523131 1.197901
0.057996 -0.190953 0.527922
0.019412 -0.071583 0.198814
0.073716 -0.677609 0.576453
0.067879 -0.673217 0.566572
0.119570 -0.821844 0.645904
0.147029 -0.877382 0.666549
0.161645 -1.001474 0.761054
0.082275 -0.514728 0.389263
0.308665 -1.024647 1.125606
0.107413 -0.381670 0.419083
0.110555 -0.386672 0.421551
0.257854 -1.182614 0.800537
0.124346 -0.413671 0.370193
0.038861 0.066941 0.097433
0.103719 -0.276119 0.263771
0.339940 -0.856537 0.856919
0.391204 -0.848838 0.628490
0.160317 -0.238309 0.170486
0.018220 -0.071102 0.191344
0.020229 -0.079012 0.231845
-0.006406 -0.032031 0.080813
0.000052 -0.023194 0.059790
-0.007196 -0.038501 0.110297
0.169393 -0.079921 0.295770
0.327051 -0.348845 0.155722
0.029638 -0.747594 0.445192
-0.024562 -0.345974 0.160435
0.135636 -0.172610 0.103743
0.135500 -0.173780 0.103327
0.174844 -0.223159 0.134939
0.054884 0.090801 0.108639
0.314321 -0.051524 0.296328
0.125568 -1.388569 1.277935
0.139768 -1.148166 1.019014
0.158801 -1.160776 0.924988
0.279945 -2.016171 1.593300
0.065719 -0.446429 0.381297
0.056932 -0.454291 0.367895
0.040015 -0.327341 0.264762
0.039971 -0.313152 0.256100
0.043064 -0.189911 0.226105
0.075272 -0.337318 0.396921
0.259687 -1.289418 1.353101
0.136500 -0.267302 0.772485
0.203441 -0.904741 0.942412
0.188704 -0.893144 0.930487
0.081488 -0.313256 0.351789
0.284978 -1.561388 1.244226
0.271756 -1.165178 1.354984
-0.018320 -0.073442 0.117059
0.378895 -0.459733 0.253155
0.029837 -0.832721 0.483720
-0.024527 -0.346534 0.160637
-0.043418 -0.683570 0.306208
0.219171 -0.007016 0.158852
0.062056 0.102554 0.119694
0.093178 0.156928 0.197934
0.086115 0.145385 0.188515
0.064096 0.105797 0.114697
0.189340 -0.051597 0.233287
0.500676 0.005786 0.265734
0.018532 -0.770628 0.455580
0.100819 -0.358638 0.407527
0.019222 -0.083088 0.271053
0.047020 -0.033030 0.109725
0.063146 -0.147368 0.419611
0.100802 -0.299547 0.815646
0.042803 -0.086439 0.330941
0.301438 -0.418081 0.283638
0.625079 0.156849 0.291607
-0.006638 -0.031907 0.079663
0.007641 -0.095927 0.307272
0.029791 -0.743677 0.441021
0.061630 -0.240045 0.275285
0.110170 -0.256469 0.248124
0.020858 -0.169920 0.150445
0.046649 -0.270173 0.217606
0.033737 -0.206576 0.165889
0.053820 -0.200504 0.198218
0.187556 -0.385254 0.350222
0.210815 -0.440678 0.404694
0.005020 -0.047721 0.124514
0.034333 -0.783361 0.463160
0.083358 -0.974666 0.904802
0.071651 -1.006304 0.933753
0.026999 -0.088443 0.252045
0.019826 -0.072310 0.200492
0.123371 -1.162601 1.069300
0.163559 -0.294448 0.841246
0.083589 -0.165795 0.467675
-0.037596 -0.208256 0.530872
0.110369 -0.483893 0.568878
0.048497 -0.186279 0.209358
0.029964 -0.035668 0.107415
0.111510 -0.360804 0.394086
0.655501 -1.824379 1.900146
0.165646 -0.456139 0.465899
0.349940 -0.912117 0.925411
0.087071 0.146795 0.189158
0.070096 0.117860 0.154226
0.085365 0.142592 0.173983
1.046654 -1.307402 0.777904
0.335940 -0.422947 0.249277
0.712737 0.125466 0.488275
0.090546 0.152474 0.194343
0.145877 0.070247 0.143038
0.164509 0.071270 0.147868
0.143913 0.023786 0.102437
0.864250 -1.085408 0.636280
-0.018034 -0.091463 0.263652
0.005300 -0.049456 0.131511
-0.045958 -0.141403 0.386129
0.354952 -0.533004 0.384645
0.398723 -0.614078 0.464201
0.303004 -0.488116 0.375598
0.239682 -0.404662 0.322424
0.120116 -0.237306 0.164265
0.128766 -0.183635 0.125665
0.119565 -0.251028 0.210913
1.122229 -2.975728 2.340556
0.347869 -1.552961 1.139427
0.275038 -1.834666 1.439906
0.287145 -1.572409 1.252820
0.108228 -0.539580 0.415173
0.150052 -0.771704 0.534157
0.150278 -1.741097 1.536250
0.121184 -0.623924 0.659826
0.141015 -0.413464 0.356015
0.085969 -0.240703 0.195054
0.507594 -1.259165 1.155539
0.154495 -0.355823 0.315439
0.353420 -1.292938 1.179560
0.189222 -1.674542 1.365247
0.175907 -1.048941 0.784743
0.118848 -0.227241 0.154978
0.033968 -0.093484 0.264626
0.837384 -0.434531 1.567118
0.073300 -0.055487 0.182610
0.163606 -0.654822 0.754262
0.471988 -1.740585 1.081903
-0.074991 -0.786502 0.470263
0.546597 -0.006092 0.372722
0.182871 -0.678561 0.434263
0.175139 -0.657095 0.421047
0.066645 0.109675 0.123555
0.281885 -0.466585 0.366223
0.104514 -0.174141 0.137340
0.303509 -0.487092 0.372862
0.348470 -0.554187 0.419748
0.749331 -1.516440 1.092282
0.304919 -0.424836 0.284040
0.160790 -0.650266 0.421935
0.175924 -0.702855 0.453646
0.903583 -2.299239 1.908168
0.126135 -0.486315 0.486085
0.243394 -0.999638 0.992667
0.260562 -0.584996 0.553794
0.143250 -0.620629 0.413562
0.107566 -0.674800 0.517512
0.129158 -0.853672 0.649829
0.267792 -0.493705 0.430092
0.879142 -1.664914 1.443482
0.166681 -0.288830 0.240756
0.225193 -0.376529 0.304631
0.113090 -0.732735 0.572544
0.065335 -0.504529 0.405297
0.072246 -0.547432 0.437246
0.396185 -0.204284 0.739559
0.065923 0.107834 0.116016
0.066553 0.109518 0.119511
0.060008 -0.116990 0.103565
0.218621 -0.093861 0.360799
0.115331 -0.218981 0.186033
0.577177 -0.934107 0.734542
0.126005 -0.197149 0.150603
0.514799 -0.091988 0.513614
0.119725 0.093839 0.119107
0.263190 -0.314459 0.173210
0.406799 -1.168278 1.231146
0.041420 -0.066207 0.194322
0.189090 -1.084179 0.817898
0.050051 -0.197329 0.198474
0.437768 -1.306497 1.374927
0.152579 -0.485274 0.420205
0.218256 -0.693180 0.639075
-0.001435 -0.022933 0.057940
-0.002074 -0.025710 0.064403
0.046300 -0.813737 0.752303
0.085058 -0.356188 1.165752
0.020384 -0.256052 0.224516
0.441470 -2.166569 1.526477
0.087335 -0.151701 0.126049
0.150323 -0.218307 0.148886
0.111591 -0.178792 0.139614
0.103500 -0.168657 0.131109
0.057734 -0.068215 0.211956
0.017352 -0.018257 0.060230
0.079529 -0.050201 0.171939
-0.011166 -0.039259 0.084157
0.008162 -0.268830 0.559659
0.032584 -0.149295 0.307232
0.018602 -0.118774 0.244879
-0.023805 -0.066570 0.162354
0.285673 0.049645 0.197059
0.436199 -1.359553 1.466761
-0.003862 -0.061291 0.128416
0.375443 -0.837272 0.583176
0.443126 -1.233248 0.998161
0.077151 -0.509322 0.430080
0.034758 -0.120140 0.107503
0.043097 -0.047975 0.206154
0.001690 0.127135 0.125701
0.091870 -0.293331 0.273340
0.355432 -0.885297 0.678837
-0.035832 -0.179373 0.454650
-0.000453 -0.053667 0.139695
0.100991 -1.447478 1.313514
0.183232 -1.787935 1.538348
0.065368 -0.606887 0.519660
0.052951 -0.564372 0.484749
0.018987 -0.161944 0.144781
0.039930 -0.313578 0.256355
0.037518 -0.238668 0.199427
0.031778 -0.209533 0.175482
0.039441 -0.179202 0.214633
-0.005940 -0.050340 0.150462
0.400800 -2.163162 1.712330
0.161855 -0.855220 0.596504
0.314772 -1.104900 1.230261
0.153905 -0.621754 0.591022
0.187132 -0.700237 0.645855
0.298429 -1.077690 0.988904
0.078278 -0.285214 0.274199
0.092648 -0.326431 0.309952
0.129691 -0.384005 0.407850
0.182355 -0.766432 0.495511
0.241729 -0.641905 0.643194
0.682022 -2.016793 1.776209
0.159689 -0.410298 0.380668
0.406270 -1.081596 0.861810
0.417863 -1.113137 0.877836
0.118990 -0.221894 0.190152
0.113683 -0.217702 0.185339
0.295577 -2.563293 2.091494
0.066539 -0.481846 0.380492
0.060186 -0.265074 0.275382
0.187526 -0.840831 0.859109
0.095078 -0.591329 0.451513
0.140276 -0.845363 0.641973
0.158628 -0.838178 0.582917
0.166021 -0.848212 0.587684
0.088048 -0.471215 0.332322
0.193684 -0.978179 0.687558
0.407833 -1.990170 1.386568
0.516737 -1.844163 1.676271
0.612683 -1.986191 1.734750
0.289640 -1.037813 0.664091
0.079803 -0.226590 0.185518
0.351679 -0.852786 0.839383
0.302015 -0.820947 0.654791
0.264911 -0.586086 0.557927
0.226380 -0.502980 0.474991
0.101142 0.169899 0.209495
0.272925 -0.587924 0.547512
0.235248 -0.497119 0.458029
0.178779 -0.104956 0.354459
0.084139 -0.147770 0.121364
0.265026 -0.447727 0.357258
0.405651 -0.108960 0.500555
0.081763 -0.023765 0.100843
0.088799 -0.023282 0.103451
0.119070 -0.195215 0.135315
0.347200 -0.459366 0.294298
0.567409 -1.749120 1.855758
0.249499 -1.014759 0.962739
0.225509 -0.930136 0.883523
0.294635 -0.733997 0.677002
0.095099 -1.314958 1.183436
0.253144 -1.237044 0.838090
0.240264 -0.865268 0.545434
0.219533 -0.872485 0.565232
0.280122 -1.856376 1.410588
0.184287 -1.088039 0.817160
0.322122 -1.727736 1.252754
0.484395 -1.227840 0.959954
1.077236 -2.662946 2.048350
1.251096 -2.328454 2.036750
0.320502 -0.581953 0.499994
0.120723 -0.219729 0.185357
0.503710 -0.690152 0.461527
0.090931 -0.141776 0.105971
0.142981 -0.231448 0.182361
0.265308 -0.434614 0.335039
0.157808 -0.229095 0.163177
0.161181 -0.241021 0.177155
0.344969 -0.533593 0.394435
0.089523 -0.092094 0.280951
0.062331 -0.145785 0.416079
0.065910 -0.045606 0.153300
0.042313 -0.031977 0.104735
-0.042578 -0.101389 0.263762
-0.088652 -0.237847 0.630215
-0.000315 -0.041236 0.107096
-0.018383 -0.123774 0.359328
0.296611 -1.119501 1.266928
0.177492 -0.809504 0.955133
-0.018902 -0.471604 0.657098
-0.021230 -0.813924 1.124003
0.461261 -0.552863 0.303824
0.444812 -0.533388 0.293996
-0.074020 -0.801495 0.453769
0.026369 -0.861866 0.499456
1.183049 -1.508147 0.908481
0.131879 -0.169194 0.102923
-0.250388 -0.791630 0.880996
-0.137533 -0.516957 0.552285
-0.141589 -0.621356 0.686165
-0.299686 -0.915702 0.982132
-0.251684 -0.928098 0.979807
-0.867984 -0.815564 0.401823
-1.251558 -0.781940 0.465893
-0.392824 -0.747207 0.449247
-0.248869 -0.800494 0.474760
-0.274815 -0.747476 0.446009
-0.956813 -0.959922 0.556583
-0.635283 -0.628293 0.345520
-0.711211 -0.710986 0.392212
-0.478191 -0.673250 0.405993
-0.640742 -0.102402 0.249092
-1.340023 -0.665663 0.631187
-1.427907 -0.623774 0.599570
-1.495158 -0.660968 0.638242
-2.360360 -1.153805 1.048026
-1.252234 -0.603489 0.554376
-0.512125 -0.486419 0.851367
-0.413637 -0.628572 0.711177
-0.559690 -0.344866 0.774443
-0.320276 -0.259143 0.601478
-1.828148 -0.619309 1.183573
-2.196370 -0.696337 1.552039
-2.364447 -0.738284 1.618536
-0.393246 -0.828128 0.874250
-0.447373 -0.982110 1.036199
-0.338486 -0.740684 0.810583
-0.576561 -0.890929 0.947754
-0.540609 -0.864315 0.920484
-1.057875 -0.787755 0.817922
-1.465832 -0.964862 1.052534
-1.008788 -0.765115 0.765805
-0.956908 -0.723245 0.727296
-0.223459 -0.574231 0.628057
-2.112009 -0.844934 1.341086
-0.559866 -0.389801 0.837992
-0.440982 -0.269009 0.613016
-0.686007 -0.340698 0.784533
-0.679152 -0.545959 0.637596
-1.350844 -0.649416 0.625040
-1.371485 -0.662355 0.639525
-2.000014 -0.811536 0.762010
-0.739253 -0.725154 0.388351
-0.821534 -0.653461 0.397744
-0.090558 -0.743374 0.440943
-0.931988 -0.649783 0.514104
-0.519631 -0.743109 0.442789
-2.609960 -1.118970 1.004178
-0.302134 -0.644858 0.562326
-1.517527 -0.998935 1.088561
-1.026730 -0.778265 0.778756
-1.370264 -0.829379 0.745254
-0.564199 -1.001876 0.989072
-0.340801 -0.932312 0.886544
-0.845513 -0.992157 0.927027
-2.372981 -0.687953 1.600596
-1.780287 -0.455164 1.300808
-0.670953 -0.593285 0.864008
-1.992316 -0.950880 0.857347
-1.250699 -0.565803 0.545043
-1.950323 -0.857281 0.819158
-2.191658 -0.939701 0.906359
-1.497084 -0.730266 0.707852
-1.904232 -0.905258 0.863708
-1.350847 -0.649418 0.625041
-0.462402 -0.213375 0.209886
-1.224272 -0.589125 0.569910
-1.796554 -0.774670 0.703231
-1.553488 -0.635593 0.600691
-0.611487 -0.668860 0.403293
-0.815271 -0.664962 0.415753
-0.286700 -1.110584 1.075435
-0.705936 -0.047255 0.287893
-0.673525 -0.015143 0.282662
-0.090935 -0.741768 0.440027
-0.171876 -0.608880 0.687131
-0.238384 -0.778556 0.853548
-0.055149 -0.131830 0.253037
-0.047733 -0.105197 0.213873
-0.053069 -0.118154 0.259565
-0.273672 -0.821535 0.882345
-0.691128 -0.487935 0.257241
-0.929990 -0.686012 0.427810
-0.864553 -0.684862 0.412236
-0.826055 -0.653395 0.397081
-0.822629 -0.809991 0.417488
-1.008934 -1.003734 0.579517
-0.894100 -0.893068 0.518415
-0.738880 -0.726522 0.388602
-0.692770 -0.690694 0.382301
-0.488676 -0.652378 0.401842
-0.465674 -0.631010 0.388801
-0.472801 -0.665154 0.401609
-1.060952 -0.671030 0.428230
-1.296806 -0.731487 0.502453
-0.965267 -0.682542 0.434005
-1.040651 -0.732338 0.464453
-2.451503 -0.992705 0.925416
-0.972948 -0.463810 0.429755
-0.148028 -0.115791 0.132483
-0.517847 -0.499903 0.711489
-1.032238 -0.515971 1.190728
-0.594701 -0.329052 0.776539
-0.539269 -0.291167 0.676139
-0.175551 -0.112402 0.269527
-2.395764 -0.951338 1.488561
-2.291954 -0.919256 1.452691
-0.404385 -0.096486 0.237228
-2.248720 -0.556525 1.359779
-1.048620 -0.874822 0.904040
-0.819781 -0.707672 0.730908
-0.280683 -0.760430 0.806514
-0.644939 -0.989430 1.057525
-0.524710 -0.835906 0.891799
-0.488430 -0.740099 0.799279
-0.623713 -0.988016 1.069382
-1.040482 -0.723856 0.569640
-0.996654 -0.825654 0.771225
-1.068883 -0.796571 0.831682
-1.593604 -1.251228 1.056578
-0.466912 -0.817425 0.866686
-0.333277 -0.751829 0.803224
-1.470737 -0.961208 1.065790
-0.315885 -0.209924 0.486625
-0.219418 -0.234386 0.417559
-0.129343 -0.126614 0.277586
-0.689887 -0.363726 0.865095
-0.845713 -0.447560 1.027798
-0.334631 -0.190238 0.448055
-1.139132 -0.552765 1.285199
-1.160999 -0.551248 1.300552
-0.537884 -0.800592 0.877468
-0.407410 -0.626843 0.713188
-0.301734 -0.740181 0.440104
-3.898248 -0.826364 1.810549
-2.108779 -0.899048 0.817969
-1.940894 -0.838541 0.799136
-2.044107 -0.950857 0.865379
-0.108917 -0.080609 0.118987
-0.512753 -0.858486 0.929927
-1.515695 -0.995195 1.256684
-0.589430 -0.692173 0.631695
-0.827373 -0.691780 0.733289
-0.640138 -0.968410 1.023957
-0.586962 -0.865954 0.932808
-0.464976 -0.737966 0.790572
-0.590700 -0.954678 0.872879
-0.761945 -0.569675 0.402290
-0.414318 -0.324048 0.283383
-0.427057 -0.924614 1.010416
-0.239653 -0.886716 0.973500
-0.217367 -0.835874 0.922625
-0.283018 -0.944060 1.016725
-0.477853 -1.049268 1.162999
-0.532686 -0.925899 1.020873
-0.482270 -0.867187 0.952376
-0.516824 -0.857839 0.955626
-0.583924 -0.937636 1.056967
-0.566742 -0.886679 0.960103
-0.810847 -0.561158 0.424849
-1.179985 -0.541341 0.528020
-0.276463 -0.974278 1.024926
-0.248879 -0.811294 0.861619
-0.304446 -0.922547 0.993823
-0.316727 -0.790423 0.876400
-0.404465 -0.901093 0.962189
-0.357848 -0.633489 0.710191
-0.446548 -0.813952 0.914139
-0.526456 -0.971291 1.037198
-0.519870 -0.933244 1.000684
-0.484820 -0.823137 0.926180
-0.422872 -0.745329 0.839662
-0.552227 -0.887400 0.956467
-0.486926 -0.783894 0.864843
-0.560626 -0.834842 0.932472
-1.607325 -0.541798 1.304001
-1.027346 -0.746565 0.464505
-0.975011 -0.710897 0.443114
-2.023083 -0.946678 0.857613
-1.595367 -0.751534 0.680612
-1.479782 -0.646812 0.620054
-1.809093 -0.728190 0.684636
-0.933374 -0.571135 0.308095
-0.278442 -1.182010 1.273454
-0.262013 -1.003075 0.937937
-0.282096 -0.804817 0.896771
-0.255355 -0.782643 0.863416
-0.328459 -0.975249 1.035688
-7.716196 -20.561798 22.060972
-0.323206 -0.845163 0.906074
-0.305157 -0.823893 0.786739
-0.388655 -0.919193 0.990276
-0.297216 -0.703772 0.773589
-0.372145 -0.859020 0.959094
-0.385735 -0.727478 0.809728
-0.434246 -0.860775 0.968460
-0.571260 -0.978279 1.038934
-0.401958 -0.314763 0.637578
-0.087031 -0.078054 0.111277
-0.068306 -0.063598 0.083035
-1.556554 -1.231792 1.380684
-0.845360 -0.660164 0.700023
-1.373342 -0.659916 0.633786
-0.877973 -0.616259 0.391234
-0.281832 -0.711163 0.789631
-0.326545 -0.858763 0.952081
-0.364812 -0.821306 0.919715
-0.364271 -0.781783 0.858110
-0.354032 -0.763632 0.838450
-0.416633 -0.870721 0.942989
-0.341362 -0.677559 0.769844
-0.488346 -0.939260 0.997942
-0.577255 -0.958794 1.036785
-0.585314 -0.856911 0.950125
-0.812499 -0.463078 1.161930
-0.704227 -0.503956 0.982894
-0.738487 -0.381855 0.927431
-0.515863 -0.244086 0.637166
-1.172336 -0.869282 0.816688
-0.992137 -0.771776 0.631094
-0.963391 -0.741389 0.610957
-0.987887 -0.454007 0.437693
-2.016587 -0.887673 0.848879
-1.690379 -0.734397 0.708489
-1.942317 -0.783204 0.732400
-1.928665 -0.776150 0.727393
-0.072644 -0.882587 0.439953
-0.166480 -0.355931 0.248431
-0.992285 -0.686900 0.436719
-1.150353 -0.725219 0.464035
-0.207324 -0.205872 0.107459
-0.179401 0.076300 0.156358
-0.320231 0.009725 0.126417
-1.569750 -1.540674 0.779266
-0.694199 -0.690450 0.410718
-0.686300 -0.157993 0.243151
-1.864905 -0.750323 0.704572
-1.804861 -0.785732 0.718014
-1.353943 -0.668600 0.645825
-2.390109 -1.026237 0.985998
-1.947772 -0.868716 0.825696
-0.821245 -0.604385 0.891602
-0.089965 -0.076916 0.109079
-0.399166 -0.160691 0.423175
-0.212006 -0.204729 0.416572
-0.125229 -0.044011 0.099466
-0.959282 -0.792953 0.832340
-0.936363 -0.736382 0.631560
-0.493139 -0.908328 1.007125
-2.053523 -0.956314 0.872395
-0.064716 -0.120332 0.277909
-0.061810 -0.109771 0.264909
-0.457573 -0.965347 1.058045
-0.271250 -0.290377 0.499218
-0.408394 -0.674856 0.729076
-0.447188 -0.745723 0.797786
-0.409827 -0.744608 0.800103
-0.175723 -0.192339 0.349046
-0.539366 -0.925997 0.984029
-0.529269 -0.741128 0.830724
-0.551930 -0.788912 0.887426
-0.065985 -0.059155 0.084200
-0.372934 -0.765372 0.463543
-0.371284 -0.733041 0.436404
-0.348772 -0.030762 0.421862
-0.385277 -0.700025 0.422949
-1.059190 -0.787489 0.741579
-0.378388 -0.298335 0.258379
-0.214005 -0.168749 0.146786
-0.773558 -0.757743 0.389347
-1.197954 -0.586560 0.560622
-1.947219 -0.968257 0.881577
-0.952783 -0.664700 0.413495
-0.984183 -0.682801 0.429520
-0.101392 -0.194450 0.445771
-0.302637 -0.794296 0.874273
-0.308723 -0.833292 0.801183
-0.358436 -0.792600 0.873221
-0.418737 -0.783452 0.846408
-0.253344 -0.220332 0.519394
-0.573078 -0.849159 0.912648
-0.274491 -0.753534 0.446203
-0.088987 -0.102515 0.090971
-1.459120 -0.868627 0.918222
-0.252398 -0.256692 0.156262
-0.990494 -0.690659 0.435968
-0.666525 -0.011573 0.280092
-2.181115 -0.958924 0.915031
-1.958968 -0.862432 0.825678
-1.292485 -0.523943 0.500148
-1.387539 -0.560353 0.533993
-1.507719 -0.613934 0.581613
-1.297214 -0.524827 0.493454
-0.696561 -0.142435 0.252689
-0.263973 -0.790062 0.842840
-0.062478 -0.144088 0.275797
-0.452017 -0.722011 0.800784
-0.582611 -0.911507 1.019151
-0.318830 -0.719672 0.437339
-0.345392 -0.705648 0.429148
-0.165925 -0.075154 0.193141
-0.373403 -0.709497 0.425780
0.029804 -0.237903 0.195686
0.084746 -1.170430 1.053765
0.064731 -0.601495 0.515326
0.242056 0.089964 0.169040
0.238103 0.088300 0.167123
0.759749 -0.868422 0.424233
0.393445 0.091959 0.202507
0.542463 0.132731 0.249310
-0.025333 -0.076868 0.203668
-0.008692 -0.032544 0.092131
0.004346 -0.087897 0.232648
0.342328 -0.984006 1.048660
-0.003578 0.089579 0.109513
0.099059 0.165658 0.203958
0.475832 0.015292 0.224520
0.483925 0.022615 0.232175
1.337372 -1.685194 0.995038
0.806911 -1.055352 0.654282
0.487282 -0.523370 0.235099
