3.609373 2.105574 -1.810465
5.234657 1.899530 -1.317867
10.045109 2.214838 -2.018975
1.933375 2.355962 -2.511710
1.925845 2.365864 -2.520085
1.981144 2.335322 -2.499227
4.267652 2.492932 -2.504969
13.616176 5.294209 -3.748855
4.975870 2.229058 -2.212435
1.977203 2.329061 -2.437746
2.160553 2.163244 -1.951725
2.504764 1.978629 -1.878835
7.311713 2.226422 -2.105903
2.467118 2.121039 -2.067919
7.207205 2.203591 -2.121289
2.450196 2.070638 -1.931913
2.260314 2.104371 -1.929829
7.292381 2.197977 -2.116025
2.363745 2.176696 -2.099132
2.430899 2.131932 -2.076212
2.386552 2.096850 -1.958583
4.243042 2.713124 -2.535435
5.593763 2.214157 -2.154908
5.572924 2.192641 -2.150105
7.182223 2.198356 -2.080260
5.112764 2.156884 -2.157833
4.141405 2.215769 -2.287258
5.524996 2.236850 -2.189785
2.456946 2.034396 -1.881243
2.299017 2.113552 -1.937981
4.290508 2.351735 -2.359231
2.815954 3.350153 -3.156460
2.026540 2.317085 -2.454829
2.353825 2.188932 -2.062120
2.509765 2.051596 -1.921247
5.591002 2.210462 -2.153091
7.191121 2.183200 -2.097963
5.339325 2.200868 -2.201883
4.972772 2.222168 -2.212099
5.346085 2.251463 -2.218061
3.154640 2.713785 -2.696643
2.434802 2.100430 -1.940192
2.616965 1.983862 -1.889141
7.382793 2.260466 -2.118204
2.375630 2.174848 -2.053753
2.354187 2.194536 -2.106340
2.145393 2.182068 -2.275362
7.382328 2.229951 -2.131265
8.337605 2.333004 -2.155911
4.323089 2.251450 -2.273216
5.107843 2.337150 -2.275508
4.199131 2.279088 -2.328838
4.053342 2.247218 -2.305949
7.415440 0.762964 -2.835319
2.349027 2.167329 -2.318765
7.330214 0.576508 -2.586355
2.749902 1.987210 -1.971755
3.024693 1.814808 -1.918027
6.677369 5.352005 -4.848837
12.439402 2.589717 -2.082010
12.455307 2.397322 -1.891832
4.198323 2.139060 -2.246483
2.673939 2.027290 -2.011811
4.737885 2.384230 -2.340522
11.074236 2.283608 -1.904895
10.695526 2.551777 -2.292404
2.740769 1.994413 -1.988444
2.718737 1.943388 -1.867812
4.534343 2.315378 -2.214932
2.574998 2.016212 -2.085743
7.283517 0.775287 -2.750064
3.370914 1.037336 -2.725152
4.349200 2.204388 -2.244791
2.409690 2.075144 -2.164706
2.657969 1.982888 -1.895148
6.426410 2.300758 -2.180529
4.091568 2.147590 -2.362353
4.509489 2.604327 -2.565935
5.102584 2.280510 -2.213563
3.563312 2.233338 -2.321237
5.645216 1.685650 -1.669460
4.226929 2.565641 -2.559819
4.781744 1.610167 -1.690552
7.230036 2.257741 -2.158825
6.652418 3.103099 -2.834385
7.748050 2.818120 -2.670532
3.136895 2.380611 -1.993666
4.314324 3.034861 -2.980084
4.373474 3.670717 -0.950988
11.650617 1.407474 -2.285275
11.058527 1.994042 -1.550598
7.325963 0.748139 -2.754476
8.120382 2.033400 -1.924336
7.664997 1.793953 -1.708939
2.487923 2.107147 -2.256849
5.228622 1.826068 -1.154791
5.026835 1.954649 -1.476342
5.018211 1.732830 -1.009401
6.166147 0.330525 -2.464485
12.029660 1.117311 -2.523146
11.754417 0.785245 -2.581355
7.811642 0.733334 -3.146297
6.229385 0.295314 -2.538638
5.029602 1.946241 -1.475522
5.019053 1.733119 -1.010229
8.933786 0.639170 -3.037365
5.334950 2.094365 -2.086240
8.251814 0.342240 -2.411481
8.089814 0.372675 -2.342621
7.586664 0.696539 -2.594347
5.617603 2.103333 -2.099850
10.757083 1.382035 -2.191913
11.217283 1.603745 -2.019773
12.067861 0.951574 -2.435227
11.629543 1.101143 -2.400949
6.866736 0.310836 -2.294886
11.442980 0.988906 -2.413242
11.652838 1.010986 -2.368652
7.367262 0.586039 -2.620335
7.376405 0.566907 -2.587296
11.286999 1.828254 -1.591366
7.766237 2.328245 -2.093658
10.098204 1.980066 -1.791238
5.235392 1.789230 -1.150313
5.009282 1.830519 -1.163520
7.205051 0.772232 -2.687660
11.649877 1.127467 -2.455370
11.080482 1.076673 -2.371770
11.697598 1.079295 -2.514265
8.594370 0.686996 -2.708308
7.852976 1.857982 -1.770978
6.161976 0.328684 -2.462557
12.045115 1.541445 -2.252092
11.858560 2.237812 -1.806481
7.455626 0.735407 -2.851766
5.050377 1.713130 -1.004627
5.103767 1.682118 -0.983422
2.641968 1.988622 -2.071960
11.509803 0.893721 -2.412516
8.146433 0.360594 -2.367356
11.848510 1.670714 -2.113095
8.791861 0.623953 -3.107302
6.193386 0.312897 -2.497355
6.160554 0.321051 -2.456453
11.864470 1.258605 -2.321563
11.708988 1.155977 -2.437990
12.016276 1.146706 -2.471164
11.787821 1.028412 -2.578008
6.149337 2.088176 -2.055648
6.173894 2.052146 -1.986987
5.973279 2.616573 -2.549634
11.346684 0.796871 -2.489800
7.997762 0.390198 -2.313757
7.365694 0.566466 -2.582923
7.296141 0.623060 -2.574086
7.286246 0.750467 -2.728150
5.024767 1.908887 -1.338139
11.557522 1.485156 -2.239147
5.153973 2.247056 -2.200954
6.186796 0.316099 -2.491049
11.798284 1.337862 -2.278727
11.825191 1.250822 -2.316638
11.269265 1.072608 -2.421647
12.119376 1.090873 -2.408891
11.493139 1.840981 -1.614721
11.617159 1.787943 -2.075352
8.008077 0.381692 -2.327384
4.038973 1.012685 -2.060598
3.464875 1.071019 -2.630806
8.291490 2.092456 -1.969251
8.296616 0.355210 -2.409821
7.992808 0.384992 -2.320611
8.306111 1.847443 -1.759446
10.542465 2.465815 -2.208215
6.192885 0.312469 -2.498880
12.051949 1.351812 -2.323475
7.304612 0.589779 -2.567616
6.709046 2.236095 -2.175235
6.334816 2.217655 -2.159868
6.384034 2.188530 -2.147002
5.372944 2.234336 -2.211781
11.481198 1.120030 -2.409589
11.583634 2.245239 -1.849536
6.641833 0.322590 -2.278161
5.357180 2.189026 -2.190763
8.762181 2.496065 -2.226089
5.236557 1.729100 -1.000157
11.881292 2.215564 -1.909236
9.586650 2.281746 -2.111890
7.247212 0.776757 -2.731209
8.038223 0.359594 -2.346888
11.178142 1.991457 -1.514625
10.759415 2.239568 -1.916733
6.170015 0.307389 -2.487757
5.272562 2.121489 -2.109549
6.988318 0.335018 -2.423112
5.067378 2.166368 -2.148126
5.115503 2.291896 -2.250771
5.383923 2.122794 -2.057649
5.713929 2.123241 -2.136795
5.038307 1.706354 -1.008385
5.971266 2.610615 -2.547633
4.076024 2.165278 -2.378894
8.501744 2.000932 -1.880346
4.346451 2.212607 -2.248849
9.662037 4.322701 -3.747296
5.661088 2.246132 -2.177382
11.662681 1.152044 -2.351709
11.902297 1.525824 -2.291368
11.363246 1.619192 -2.135798
11.402805 0.791209 -2.496752
11.278636 2.118090 -1.514148
11.166548 1.077677 -2.391674
9.959556 2.390863 -2.195151
6.187576 0.326353 -2.465595
5.162177 2.181334 -2.266943
5.048815 2.262392 -2.233503
4.043583 2.249565 -2.313661
4.000379 2.513597 -2.536781
5.667947 2.282120 -2.207043
6.265912 2.150467 -2.118583
7.471723 2.268994 -2.163799
4.900210 2.134970 -2.106731
7.292864 2.367436 -2.262354
4.245629 2.292278 -2.331378
5.239089 1.887752 -1.318043
5.094340 2.135598 -2.123821
5.234108 1.864762 -1.310543
2.983740 1.047151 -2.778998
5.623580 2.445624 -2.341147
5.692291 2.294234 -2.219147
5.019267 2.155632 -2.142692
12.333374 1.785615 -2.067628
5.123024 2.316315 -2.275433
5.127175 2.392248 -2.345432
4.991456 2.284035 -2.266889
6.156168 0.334082 -2.447242
5.265117 2.299289 -2.257424
4.485868 2.047887 -1.751418
6.938211 2.895117 -2.104554
4.547701 2.091468 -1.766726
2.421330 2.540941 -2.673841
12.537393 2.083063 -1.431129
3.986454 2.491763 -2.573872
6.749500 2.010818 -1.561030
5.736451 2.154174 -2.163584
9.431793 2.189841 -1.949920
6.174610 0.336632 -2.441519
6.474612 2.177511 -2.133111
6.413515 1.980889 -1.904089
14.531808 2.152182 -1.427994
11.461636 1.277005 -2.342273
11.295806 1.032618 -2.453252
7.508703 2.488861 -2.359318
5.075703 2.217342 -2.189497
4.460142 2.255798 -2.282885
8.310636 0.674806 -2.780988
7.349174 0.745211 -2.773663
7.447930 0.740000 -2.845600
6.159573 0.333044 -2.450027
7.331095 0.624983 -2.587666
5.300712 2.258010 -2.224008
6.030761 1.956339 -1.948563
8.387626 2.032769 -1.910971
5.777972 2.077979 -1.633422
5.842406 2.027844 -1.688215
5.729939 2.140433 -2.153976
5.754385 2.060141 -2.056863
6.565275 2.428475 -2.292592
6.402408 1.971628 -1.898088
6.064250 1.992040 -1.977631
5.703814 2.343772 -2.251284
5.798865 2.542434 -2.412001
7.343666 0.768261 -2.789532
11.308634 1.503982 -2.257009
5.407732 2.224877 -2.206916
6.924593 2.145614 -2.002240
7.113036 2.538313 -2.435239
5.126201 2.305291 -2.267766
11.617628 1.012056 -2.535501
7.342626 0.578903 -2.612681
12.112550 1.751176 -2.150484
8.188958 0.358562 -2.374819
5.336632 2.237898 -2.206970
11.368715 1.103811 -2.455385
9.890143 2.336667 -2.114277
4.370734 2.004212 -1.725101
8.340798 1.944610 -1.796242
8.424904 2.186024 -2.074223
6.374855 1.957886 -1.875105
6.812733 2.472032 -2.381061
5.798865 2.542434 -2.412001
5.667759 2.264172 -2.246716
5.756855 2.065161 -2.059831
5.091229 2.072840 -2.081374
8.473557 0.697983 -2.640030
8.317085 0.674936 -2.783431
7.350276 0.769996 -2.791310
7.411620 0.743739 -2.813751
7.556763 2.260324 -2.048366
5.400067 2.323531 -2.289691
6.948987 2.158881 -2.013658
7.110738 2.289548 -2.084056
5.067357 2.419547 -2.345074
11.837632 1.030668 -2.584596
5.769345 2.065171 -1.626677
12.332192 1.500054 -2.149014
11.795528 1.342506 -2.272288
12.176998 1.726370 -2.059401
8.512723 0.692263 -2.665793
9.257569 2.159095 -1.986024
6.762873 2.389396 -2.305839
5.750077 2.055681 -2.048664
8.503684 2.214586 -2.107678
4.561859 1.972807 -1.624391
7.922889 2.451362 -2.188076
11.677202 2.154786 -1.993683
6.174275 0.329308 -2.460824
3.598866 2.053067 -1.717154
7.464663 0.738884 -2.857362
7.990124 2.739849 -2.462126
9.049183 2.234847 -2.027943
8.613357 1.978606 -1.845611
5.299247 2.306680 -2.265101
5.250324 2.252024 -2.265699
4.489621 2.432516 -1.905299
2.913956 2.066881 -1.731220
3.534757 2.509415 -0.398035
3.565219 2.328280 -0.517417
5.578063 2.280297 -2.277928
5.251651 2.253427 -2.267834
3.572168 2.322079 -0.521267
5.097318 2.062494 -1.737882
5.243959 2.277455 -2.286164
7.563549 2.232345 -2.169334
5.521600 2.280622 -2.245421
3.563358 2.331341 -0.515519
7.247622 2.247397 -2.165781
5.605555 2.304997 -2.308784
5.282081 2.225748 -2.300984
7.519974 0.723910 -2.876321
5.282876 2.220531 -2.304782
5.776608 2.304124 -2.215376
7.523621 0.719511 -2.913656
8.151866 2.285307 -2.146619
7.719902 0.708788 -2.973701
2.590372 2.082402 -2.040183
5.053639 2.296043 -2.262825
3.762401 2.347325 -2.328684
5.231142 2.061482 -1.731278
5.090106 2.326882 -2.255855
4.612834 2.325651 -1.829356
3.660444 2.196800 -2.281009
3.552283 2.167537 -2.267491
5.972102 2.303118 -2.294773
5.196837 2.173665 -1.810515
6.774583 2.274087 -2.217591
5.194996 1.911850 -1.631732
3.928943 1.916939 -1.995873
6.883811 1.988793 -1.952128
4.026224 1.848531 -1.928048
3.967946 1.808006 -1.907156
8.050384 1.964857 -1.879689
5.079265 1.908300 -1.921121
4.055220 1.828352 -1.908287
6.200820 1.867270 -1.855979
5.095879 1.816695 -1.305948
3.924154 1.924726 -2.004315
3.946222 2.189559 -1.863369
3.496464 2.171227 -1.775574
8.427321 2.611261 -2.405257
8.170591 2.584419 -2.408902
4.249341 2.468627 -1.944295
3.590433 2.472213 -1.965569
-2.079032 1.426787 -6.591819
-2.083713 1.428467 -6.599092
-2.079513 1.429457 -6.600726
8.168048 2.093203 -1.970152
8.564270 2.234382 -2.127728
6.978976 -0.107132 -3.408095
8.195210 0.357156 -2.377644
8.526145 0.690663 -2.672620
8.071234 0.672014 -2.748302
5.102508 2.844025 -2.756187
5.093273 2.316528 -2.286968
5.534045 2.305638 -2.273525
5.674760 2.277250 -2.260669
7.378690 0.760074 -2.818891
6.328363 2.020349 -1.997559
7.733762 2.409806 -2.249580
8.041053 0.393429 -2.315987
7.654037 0.707452 -2.934913
6.373431 0.421468 -2.111802
3.741824 2.144627 -0.600388
7.855712 2.228371 -2.099699
5.050943 2.198750 -2.191848
3.181805 1.108970 -2.898048
5.119443 2.241711 -2.190619
7.296718 2.120238 -2.039545
7.115433 2.331761 -2.157921
7.329663 2.133265 -2.050333
5.058445 2.222730 -2.212221
5.442192 2.297710 -2.240534
2.791925 1.056989 -2.951990
8.138702 1.967877 -1.793157
5.622235 2.053272 -1.987187
3.015010 1.132391 -3.035092
12.157389 1.809652 -2.023619
11.070320 1.815631 -1.947435
9.752476 2.237628 -2.058552
5.877166 1.951464 -1.891726
5.752160 1.958705 -1.564597
9.189676 1.890439 -1.766987
7.242376 2.347582 -2.245943
7.531577 2.231126 -1.990767
6.283104 2.010267 -1.648095
6.298041 2.020676 -1.652635
3.797669 1.949529 -2.052953
4.814136 2.269207 -2.278316
0.052998 8.870520 -8.127004
8.772599 2.123225 -1.920011
8.290195 1.911162 -1.828588
3.012135 1.132682 -3.038054
7.645231 2.135865 -1.988714
3.540242 1.943212 -1.633556
19.562891 2.883364 -3.307587
7.646515 1.829591 -1.707673
5.288127 2.238917 -2.163540
3.920143 2.536936 -0.220874
4.814711 2.245987 -2.249694
8.504870 0.656226 -2.930730
5.288333 2.237487 -2.164244
2.758750 1.947812 -2.006677
2.559165 2.038666 -2.108700
4.278665 1.677867 -1.768484
4.083307 1.888858 -1.958261
11.342515 3.394133 -0.790543
3.714764 1.986994 -0.732426
7.212818 2.307926 -2.214122
7.186356 2.257815 -2.195896
8.482260 2.235621 -2.019267
4.682834 2.187454 -2.146668
6.188622 2.289888 -2.238261
5.757125 2.317036 -2.211540
7.115479 2.326418 -2.163030
10.113062 2.332106 -2.026986
7.106183 2.126706 -2.055973
6.998137 2.217422 -2.147218
4.463268 2.274795 -2.294759
7.673599 2.279583 -2.043463
4.815700 2.255964 -2.238642
10.473284 2.105281 -1.775102
9.110310 2.182434 -1.942886
4.655511 2.217005 -2.181430
9.301229 2.264668 -2.000498
7.967755 2.224216 -2.059916
7.263193 2.106744 -2.028808
7.087244 2.655989 -2.415464
3.181515 1.109462 -2.898263
7.376668 2.277511 -2.173466
5.445141 2.299483 -2.245695
-1.972451 1.441434 -3.254681
-2.080359 2.577125 -3.396945
-1.706850 1.292555 -3.360397
-2.180791 1.377613 -3.277534
-2.213118 1.444041 -3.246994
-0.534235 1.060670 -2.584790
-1.783671 1.267895 -3.348706
-1.781308 1.420128 -3.163979
-2.475172 1.515362 -3.449276
1.682039 1.765541 -1.815874
1.855562 1.937192 -1.937915
2.416526 2.220872 -2.222766
2.126181 1.977094 -2.171393
2.603341 2.044075 -2.196885
2.217876 1.994546 -2.225460
-2.085693 1.266800 -3.268356
2.323619 1.785158 -2.069919
-0.825826 0.788313 -3.411341
-1.464183 1.423677 -3.162964
-0.873429 0.643443 -3.346938
-1.087226 1.215826 -3.344874
2.208158 2.050324 -2.222020
2.112257 1.705352 -2.330211
1.478331 1.634504 -2.131530
-1.323903 2.015176 -2.912203
-1.230549 2.048986 -2.978522
-1.021994 1.511796 -3.014522
2.145073 2.006677 -2.180942
-2.300805 1.464131 -3.287359
2.301171 1.898565 -2.185928
2.551975 2.018476 -2.192865
1.860601 1.853815 -1.743140
-0.758996 0.960625 -3.145754
-1.607210 1.470029 -3.253370
-1.767015 1.319715 -3.390108
-0.906610 0.690645 -3.363177
-0.911830 0.634427 -3.391876
2.606905 2.055084 -2.196182
-0.779410 0.792315 -3.353384
-2.107129 1.270549 -3.353423
1.725631 1.900746 -2.166195
1.889579 2.021078 -2.208396
2.522300 2.287019 -2.234206
-0.640059 1.612510 -3.049133
-0.582193 1.887670 -2.825018
-0.978926 1.773243 -2.721278
-0.889432 1.513099 -2.924015
-0.987335 1.492628 -2.991407
-1.282532 1.358068 -2.523486
-1.974882 1.389103 -3.130398
-1.214611 2.033684 -2.971666
2.300662 1.897986 -2.186242
-0.586681 1.355038 -3.100488
-0.740687 0.806144 -3.330757
-0.501686 0.640048 -3.367017
-2.176348 1.234558 -3.332651
-0.769938 1.083112 -2.172708
1.478322 1.770596 -1.728906
-0.507689 1.906751 -2.792468
2.381375 1.942945 -2.177311
2.505745 2.172652 -2.189808
2.218432 1.980173 -2.233446
-1.458933 2.117056 -2.998900
-1.171008 1.956195 -2.904182
-2.290712 1.298520 -3.370646
-1.116394 -0.167716 -4.049742
2.161075 2.024640 -2.216329
-2.208665 1.387940 -3.286522
-2.208904 1.352054 -3.331262
-2.120746 1.377997 -3.322242
2.234499 1.911575 -2.140823
-1.470166 1.541408 -3.309108
2.473321 2.039821 -2.154927
2.587116 2.046407 -2.193197
-1.933888 1.396948 -3.353075
-1.702880 1.421826 -3.387968
-2.209391 1.289054 -3.409856
-2.327089 1.257395 -3.411202
2.187080 2.026577 -2.186905
2.575937 2.001888 -2.196373
-2.368341 1.406184 -3.507895
-2.351312 1.348113 -3.584645
-2.368976 1.490516 -3.403359
-2.557045 1.344187 -3.506799
-2.084172 1.357806 -3.232155
-1.944357 1.399392 -3.176320
-2.053512 1.220303 -3.275108
-0.926156 1.523230 -2.943481
-1.825424 1.309929 -3.426704
-2.115805 1.479200 -3.298382
-0.933525 1.169343 -3.267128
1.164566 1.417767 -2.095536
2.536716 2.010449 -2.190160
-0.692263 1.378823 -3.178010
-2.033274 1.258789 -3.240283
-0.638394 1.353616 -3.123630
-1.152255 1.893010 -2.819374
-0.859115 1.782693 -2.753753
-1.456848 2.113837 -2.473256
-1.446473 2.109695 -2.477201
-1.767467 1.225398 -3.197614
-1.324080 1.366743 -3.069565
-0.499052 1.507044 -2.898113
2.228158 1.909308 -2.186372
-1.419370 1.308019 -3.104854
-1.663142 1.338476 -3.088399
-1.761679 1.324298 -3.102182
-1.608347 1.320011 -3.073566
-2.676462 1.377334 -3.563991
-0.523275 1.514419 -2.931650
2.719898 2.501097 -2.284799
-0.841491 1.769991 -2.341957
-2.385386 2.713635 -2.711076
-1.418166 2.078843 -2.985360
-1.709899 2.287381 -3.146250
2.672331 2.469617 -2.279563
-0.492271 1.494178 -2.900037
-1.949284 1.321470 -3.270542
-2.042128 1.313147 -3.251015
-0.473005 1.287972 -2.977397
-2.142342 1.262644 -3.364383
-0.534166 1.957454 -2.356629
-5.187258 4.669420 -3.007446
-0.962868 1.795938 -2.782983
-1.767337 1.268548 -3.327818
-2.007566 1.306705 -3.232798
-2.583970 1.291933 -3.550049
2.290552 1.843068 -2.216197
-3.819355 1.912644 -4.305012
-1.460197 1.825945 -2.306927
-2.399483 2.509550 -2.671380
-0.775004 1.110062 -3.091518
-1.097757 1.368585 -3.035566
-0.932298 1.771000 -2.767677
-0.906583 1.349401 -3.066453
-1.757288 1.329940 -3.212596
-1.478348 1.378649 -3.136673
-3.014494 1.753183 -2.478500
-2.826438 1.485392 -2.555452
-3.517232 3.888373 -3.094235
-1.651753 1.372397 -3.176803
-2.019315 1.318456 -3.314943
-3.288970 1.472076 -3.900290
-2.639664 1.405743 -3.669025
-2.177912 2.404193 -2.586065
-1.240796 1.967827 -2.881817
-0.795835 1.499408 -3.096366
-1.962043 1.206524 -3.239623
-2.210297 2.390565 -2.583773
-2.583228 1.652316 -2.540191
-1.656958 1.395117 -3.153516
-2.014307 1.244623 -3.297050
2.366192 1.896251 -2.217915
-4.374384 1.980476 -4.499518
-4.662996 1.672530 -4.762975
2.403863 1.951035 -2.186101
2.358064 1.566708 -2.306308
-3.305193 1.792727 -2.654494
-0.021560 1.003934 -3.019683
-0.520757 1.120827 -3.060480
-1.048998 1.863145 -2.816319
-1.975605 1.297566 -3.396223
-0.859849 1.397882 -2.955197
-3.205400 1.815773 -2.531941
4.917611 2.372953 -2.592929
-0.923945 0.523249 -3.466136
-1.793430 1.742004 -2.802312
4.140182 2.135222 -2.658852
5.733506 3.141972 -2.121007
-1.536189 1.410594 -3.186394
2.430688 1.935194 -2.189291
-0.526856 0.780800 -3.248690
-0.852536 1.030704 -3.132411
-0.430556 1.830937 -2.752097
-3.299804 1.604074 -3.965050
-1.955289 1.247133 -3.231282
-3.013317 1.797014 -2.612204
-3.500874 1.915348 -2.561921
4.726822 2.278662 -2.533199
-1.299555 1.384716 -3.129506
-1.456540 1.422896 -3.186781
-2.909107 1.568206 -3.676384
2.099921 1.595263 -2.376450
4.654459 3.301642 -2.227227
-0.895692 0.539403 -3.448252
1.910290 1.863995 -2.178328
-1.276171 1.932597 -2.878899
2.120592 2.073349 -2.221158
-1.021890 0.521361 -3.508414
-1.026806 0.516988 -3.516399
2.314869 1.955024 -2.206492
-0.811066 0.891368 -3.227598
-0.200069 0.278756 -3.359203
-2.333835 1.967268 -2.538866
-3.255006 1.993780 -2.533980
-0.203258 0.277369 -3.363868
-2.829715 1.774629 -2.578465
-0.555217 0.131106 -3.590461
-1.181086 1.301567 -3.014524
-4.811946 2.282006 -2.899641
-0.469159 1.495823 -2.890261
-0.983102 1.859518 -2.268370
-0.792740 0.963477 -3.176066
-3.418158 1.893190 -2.677121
-1.578537 1.239480 -3.206501
-1.733134 1.321923 -3.265266
-1.963380 1.284651 -3.211086
-0.938228 1.467366 -2.959335
-2.211443 2.193768 -3.109246
-3.479457 1.738055 -3.974358
-1.702935 1.239373 -3.215607
-2.586118 1.720544 -2.540756
-1.694381 1.254703 -3.247223
-1.603074 1.244741 -3.220003
-0.499661 0.635596 -3.348221
2.310155 1.754712 -2.255211
2.323908 1.958417 -2.194504
-2.072951 1.374032 -3.220454
2.188735 1.885759 -2.185193
-1.922594 1.238551 -3.263906
-3.179620 1.644027 -4.005583
-0.536979 0.908507 -3.178050
-1.624050 1.231097 -3.183464
-2.670841 1.344978 -2.528572
-3.616111 1.538053 -2.681031
-1.639779 1.256890 -3.281317
-2.186623 1.758653 -2.490092
-2.129503 1.247972 -3.317905
-0.526376 1.829546 -2.780101
-1.310573 1.410288 -3.121602
4.108129 2.690862 -2.140441
6.460166 3.798473 -2.184899
-1.864165 2.185207 -2.537569
-1.452470 1.435442 -3.178698
2.314104 1.756908 -2.257043
3.646606 2.363317 -2.101785
3.363781 2.408432 -2.123077
-0.673184 0.794521 -3.233513
-2.085835 1.329043 -3.274093
-2.073749 1.407872 -3.236826
-2.630948 1.700264 -2.549179
-0.853102 0.786368 -3.255391
-4.308422 1.911864 -2.679110
-0.641681 0.801140 -3.223697
3.884090 2.563039 -2.131127
-1.762324 1.777055 -2.439443
-2.396069 1.770115 -2.523176
2.357429 1.962276 -2.146589
-1.990594 1.406159 -3.210181
-2.213774 1.766699 -2.497257
-2.760188 1.601447 -3.735318
-2.046771 1.390235 -3.236434
-3.533353 1.644335 -2.675821
-2.877551 1.611814 -3.686054
-1.803453 1.278698 -3.317436
-2.068826 1.535372 -2.458298
-2.762279 1.409517 -3.762525
-3.007113 1.626948 -3.772863
4.029115 2.093774 -2.642746
0.645505 1.457910 -3.679150
4.040043 2.097581 -2.645705
4.083224 2.166019 -2.596420
-0.782494 0.765389 -3.271383
-2.248295 1.290346 -3.385248
4.175318 2.187298 -2.606100
-1.225310 1.348736 -3.062437
-1.849097 1.401648 -3.241886
-5.625953 1.730902 -2.808823
-2.269223 1.271767 -3.420515
-1.911854 1.929789 -2.514067
-1.182787 1.338794 -3.036939
-3.883967 1.448671 -2.721981
-5.719215 1.568294 -2.827100
10.176970 4.641383 -3.466110
4.737553 3.317420 -2.191359
5.416166 3.500564 -3.309313
32.015194 18.951517 -10.295096
10.158595 4.494639 -3.456642
7.429665 3.457203 -3.025398
-1.583987 1.881965 -2.454525
-3.094630 1.798173 -2.486946
8.840008 4.001618 -3.235881
7.046009 4.810910 -2.339829
-4.961825 1.741437 -2.855446
5.029706 2.962533 -2.115036
4.985893 2.463787 -2.639892
4.787301 2.720531 -2.087062
4.533518 2.603268 -2.083102
-1.831617 1.450022 -3.271151
4.483718 2.579949 -2.082670
-7.407617 1.439728 -3.594066
3.614196 2.121443 -2.046670
-0.995249 1.562340 -2.992952
-1.006106 1.880733 -2.841992
4.910054 2.689875 -2.060738
-6.446651 1.321164 -3.434025
-1.404201 1.874423 -2.417490
-1.256407 1.805985 -2.397052
-1.022695 1.863001 -2.823790
-3.192176 1.888414 -2.519686
-1.894096 2.005190 -2.477522
-0.925689 0.773397 -3.333785
-0.826925 0.772490 -3.319639
-1.185605 1.371294 -3.113428
4.589004 2.548075 -2.058348
11.705958 4.803730 -3.536423
-0.763534 0.780995 -3.240546
-0.820725 0.783874 -3.232443
-0.755649 1.017782 -3.125104
-3.940551 1.414896 -2.603372
-2.178416 1.462667 -3.456278
-2.605578 1.651062 -2.431202
4.805857 2.913549 -2.123402
-2.536925 1.602290 -2.528929
-1.615191 1.417807 -3.186102
-3.892427 1.881477 -3.236009
-2.427687 2.415205 -2.635696
5.022464 2.411861 -2.603150
2.024166 1.868098 -2.217870
-1.649969 1.400801 -3.175477
0.292928 1.122177 -3.265826
-1.391523 2.111235 -2.329623
-3.909343 2.067498 -3.324710
-1.175714 1.265953 -2.939854
-3.725938 1.512580 -2.573184
-2.115793 1.245013 -3.282667
-2.139229 1.869460 -2.928951
-2.639671 1.822788 -2.563272
-5.562795 1.905729 -4.967446
-2.688189 1.601589 -2.440145
-6.058908 2.247558 -5.358690
-2.208792 1.225335 -3.348804
-1.594425 1.690767 -2.408062
-2.125964 1.243583 -3.319107
1.484254 1.941146 -2.081575
-2.826887 1.588483 -2.924302
2.056687 1.992683 -2.197866
-0.951269 1.462348 -2.971799
-0.932377 1.824168 -2.805764
-2.802192 2.136703 -2.620721
-1.877396 1.389101 -3.194487
-0.688449 1.488045 -2.523150
-0.688633 0.793937 -3.252052
-0.873333 1.790969 -2.781880
-0.988275 1.371553 -2.992813
-0.996716 1.779357 -2.366318
4.051280 2.195820 -2.570388
-1.485847 1.409355 -3.171213
-3.569639 1.498733 -4.145044
-0.678518 0.795952 -3.246410
-2.314739 1.238209 -3.390148
2.448209 1.952766 -2.195602
2.107486 1.916347 -2.217087
-0.964359 1.382680 -3.128722
-1.109349 1.525802 -3.064309
-0.949055 1.464770 -2.970385
-0.904874 1.402327 -2.987318
-2.137959 1.304789 -3.361681
-2.079387 1.258373 -3.333724
-3.127428 -0.018842 -4.125232
-2.659714 0.080813 -3.908049
-2.126237 1.248587 -3.322259
-1.975846 1.276397 -3.286034
3.556439 2.033173 -2.511994
-1.751810 1.604110 -2.423512
3.672065 2.672717 -1.996286
-2.028554 1.252522 -3.254549
-0.770171 0.772851 -3.254178
-2.228170 1.284855 -3.343452
-0.921880 1.368046 -3.099707
-2.431975 0.138683 -3.774283
-0.113331 0.301860 -3.253853
-2.403451 1.245237 -3.436368
3.340805 2.356901 -1.985644
-3.565506 1.847778 -2.544575
-0.559828 1.820157 -2.804862
-0.738216 0.077070 -3.722721
24.457912 9.696624 -5.670865
11.488721 6.791771 -2.511528
11.581852 6.026705 -2.307877
23.801538 8.705184 -5.142588
6.024460 2.665000 -2.749651
5.044654 3.051173 -2.117272
5.191111 3.378397 -3.242721
28.401283 11.791109 -6.833065
-0.890230 0.912943 -3.246223
-0.932236 0.450199 -3.518793
-1.051562 1.860320 -2.847517
-0.941928 1.855423 -2.831274
-2.758669 1.943240 -2.561868
-2.991211 2.088756 -2.627274
-0.953541 1.860837 -2.841946
18.920940 8.099385 -4.994047
9.980345 4.324649 -3.343827
11.314014 4.810788 -3.588298
11.288772 4.862589 -3.602613
11.301764 4.849378 -3.622028
4.251046 2.597374 -2.100356
5.076713 2.520730 -2.686456
-4.510790 1.822508 -3.308185
-0.874960 0.879867 -3.215077
-1.877092 1.948562 -2.488140
-1.948209 1.301012 -3.278883
-4.980201 1.993770 -5.030054
-1.036504 1.220216 -3.010329
-0.847085 0.930563 -3.185793
-3.781476 1.676604 -4.157340
-1.226052 1.286010 -2.977607
-3.786615 2.032000 -2.710079
-2.475632 1.448192 -3.548398
7.111607 2.352105 -2.188742
8.313488 2.391145 -2.228094
5.762068 2.149553 -2.082497
7.447357 2.249580 -2.160394
5.243101 1.881984 -1.313886
7.462446 2.257143 -2.163769
5.915832 2.295610 -2.176864
6.770015 2.188378 -2.120987
8.357472 2.712333 -2.495512
4.760538 2.406269 -2.366846
6.451960 2.809359 -2.510190
5.474453 1.912665 -1.879268
5.311908 1.996524 -1.948185
10.163707 2.368261 -2.125309
8.376211 2.018311 -1.897860
2.892224 2.008995 -1.911288
9.682925 2.226676 -1.949439
3.514258 2.000800 -2.116611
2.978719 1.123564 -3.057364
3.073175 1.111347 -2.974334
12.157310 2.219874 -1.869499
12.128575 1.628223 -2.418269
11.959072 2.266506 -2.015543
5.788741 2.331923 -2.231953
2.978473 1.116946 -3.065823
3.003023 1.112358 -3.040551
-2.524389 1.562117 -3.596386
6.498794 3.380139 -2.094046
10.225848 4.281845 -3.336871
6.191401 3.578542 -2.148940
-2.107686 1.970243 -2.959318
4.377679 2.293694 -2.593890
-1.067251 1.358178 -3.070454
-2.320020 1.311506 -3.423909
-3.717910 2.738745 -2.831789
8.912327 5.722377 -2.422409
-2.059709 1.902295 -2.481956
-4.043578 2.205014 -2.777134
-2.407971 1.270920 -3.474468
6.434298 3.392573 -2.118207
-3.908380 1.684872 -2.591058
-2.218659 1.424005 -3.328128
-2.028335 1.243937 -3.317916
1.925330 1.992506 -2.207955
3.905979 2.160356 -2.570197
4.051936 2.142311 -2.565010
7.231022 4.134135 -2.158895
-2.366940 1.416147 -3.485463
-2.491245 1.349334 -3.484061
-2.257902 2.199607 -2.567439
-2.795947 1.858434 -2.471343
-2.140716 1.289080 -3.412742
10.132152 4.227033 -3.332000
-3.566724 1.968558 -2.539064
10.017964 4.185952 -3.318008
5.291754 2.854989 -2.072893
-4.193253 1.834771 -2.615081
-1.941657 1.243779 -3.285116
-0.160536 0.668664 -3.163257
1.090930 1.134637 -2.775841
5.349101 2.881387 -2.072112
-0.768229 1.912675 -2.264664
-4.613400 1.620489 -2.710633
-1.021294 1.805409 -2.375549
-3.441521 1.822175 -2.676359
-0.833642 1.789495 -2.768828
-0.958412 1.855027 -2.826207
-3.148400 1.755525 -2.635714
-3.411540 2.048621 -2.680205
7.840266 3.361724 -2.941381
2.003314 1.975179 -2.203297
4.098474 2.188025 -2.584514
1.162347 2.039266 -2.283844
-3.997262 1.824049 -2.627498
-4.059388 1.828526 -2.639018
-1.045045 0.536776 -3.531668
-1.852140 1.993049 -2.473566
5.012798 2.793288 -2.085760
-3.453616 1.957639 -2.654063
4.217697 2.231563 -2.591051
5.157260 2.573562 -2.742679
-6.035101 1.716125 -3.474881
4.312354 2.484641 -2.073070
6.186670 2.709106 -2.788098
8.489661 3.714079 -3.120243
5.016561 3.129922 -2.156991
10.028404 4.124780 -3.312516
6.709013 2.983552 -2.814456
-2.332262 1.304089 -3.419103
-3.741212 1.702277 -2.711021
9.047129 3.926833 -3.166829
2.144376 2.137977 -2.228956
4.006283 2.870432 -2.157649
-2.104334 1.299791 -3.353674
-2.220918 1.429394 -3.313700
-1.471667 1.667752 -2.403358
5.835921 3.093793 -2.075497
-1.433333 1.654842 -2.397207
-4.781843 1.639405 -2.863673
1.158302 2.036869 -2.283271
6.390430 4.017097 -2.235031
-1.984456 1.782338 -2.493900
4.300300 2.230485 -2.602128
-3.422580 1.762972 -2.688101
6.122283 2.762112 -2.748465
7.660353 3.220100 -3.009205
11.813286 4.861078 -3.559503
8.636780 6.577714 -1.877944
11.714537 4.878265 -3.535347
11.985107 4.915561 -3.587841
7.361303 2.154495 -1.957352
2.469140 2.053200 -2.134397
4.097745 2.272390 -2.611367
4.437585 2.486694 -2.052290
3.990568 2.234385 -2.583964
-3.235089 1.876268 -2.645848
7.369948 3.840199 -3.114448
28.195755 2.452489 -6.266712
4.146023 2.297271 -2.614553
2.540700 6.050014 -5.299453
17.300081 6.396679 -4.328458
8.003359 2.216024 -2.029964
4.074960 2.164520 -2.361227
2.456445 2.065339 -1.935190
8.705580 4.264307 -2.137663
8.361321 4.296276 -2.186124
33.340618 11.787506 -6.544056
