2.596474 0.008045 1.029664
2.518374 0.259399 1.095513
2.520147 0.211748 1.082840
2.519272 0.062990 0.996298
1.175093 0.371170 0.893376
2.242332 0.251708 1.134539
2.513576 0.043848 1.002081
1.377738 0.356011 0.901215
1.510736 0.237515 0.877760
-1.734237 -0.252230 0.541864
3.349832 0.372882 1.361948
3.528001 0.537691 1.029885
0.223744 0.393913 0.953441
-1.504386 -0.348599 0.480155
-1.366280 -0.282146 0.573716
3.550300 0.504219 1.010447
3.623147 0.545823 1.032755
7.515457 -0.349738 2.528847
-1.394369 -0.343052 0.560711
6.423067 -2.608020 1.725846
2.724938 -0.094082 0.448268
2.731021 -0.093588 0.450067
8.702807 -1.981985 3.206146
3.049600 -0.716342 0.515673
8.121839 -1.801315 2.947352
-0.741797 0.181599 0.966662
-0.664593 0.008735 0.820210
4.093576 -0.278204 1.006182
3.460493 0.468129 1.143783
7.345925 -1.624558 1.974695
0.362628 -0.306670 0.695879
3.396297 0.458028 1.121343
2.952509 0.322901 1.341198
3.773666 0.408338 1.377471
3.232970 0.414404 1.267068
2.726262 -0.009693 1.039527
3.486983 0.375455 1.276326
2.864215 -0.307050 0.995459
-1.486135 -0.249656 0.576906
-1.568651 -0.256820 0.588086
2.513053 -0.127193 0.920274
-1.855422 -0.276243 0.545555
-1.368944 -0.279831 0.574768
-1.571078 -0.261502 0.588795
1.683708 -0.059169 0.843656
-0.030849 -0.343690 0.729520
1.155495 0.176503 0.809740
1.155236 0.177628 0.809161
0.951695 -0.108326 0.674551
2.510868 0.136002 1.063783
-1.279121 0.392250 0.747695
2.664088 0.241022 1.171594
2.481979 0.213679 1.086152
0.924862 0.013011 0.728801
0.864189 0.391351 0.828378
-1.485803 -0.239732 0.608969
1.066321 0.392324 0.898429
2.227474 0.334864 1.168367
3.485831 0.378114 1.266286
-1.606217 -0.263704 0.566301
5.482732 0.851277 1.580316
2.463345 0.253947 1.099967
4.454524 -1.356319 0.874694
9.690744 -1.766734 5.047437
15.483493 -7.149129 12.693828
2.810661 0.285366 1.057140
12.720550 -6.200199 8.856796
8.346181 -1.851608 2.229319
13.144050 -3.572890 7.126634
12.502975 -4.172136 4.479774
13.837234 -4.720993 4.930943
7.321374 -0.654433 2.187388
7.117868 0.153909 2.557527
7.801082 -1.493026 2.186237
7.068686 0.104973 1.977839
6.993800 -0.630496 1.587533
11.747816 -5.691373 7.748752
12.398682 -6.063089 8.095545
15.236379 -2.757150 6.338821
2.432256 0.361005 1.144463
7.388515 0.174068 2.696782
-1.492849 -0.246308 0.646481
7.634833 -0.594521 1.768213
14.098306 -2.496402 5.765731
7.749831 -1.131794 2.095622
7.479086 -1.664405 2.022652
2.185887 0.311368 1.130512
3.433906 0.471911 1.137981
2.415891 0.519056 0.866694
6.525589 -0.976512 2.402375
7.564251 -0.324524 2.550658
0.668000 0.513476 0.759205
7.180429 -0.426293 2.377112
3.434227 0.520689 0.984746
7.615358 -1.283531 2.166542
7.517285 -0.931573 2.007379
7.672782 -0.160198 2.215310
7.510836 -0.156183 2.653435
7.644959 -0.747043 2.189946
7.343138 -1.016032 1.900941
7.509836 -0.093618 2.681844
7.507386 0.002767 2.727999
7.505954 -1.003899 2.007958
7.038303 0.068915 1.747741
7.883655 -0.149062 2.277684
7.522447 -0.160023 2.657802
7.571293 -0.614606 2.085128
8.215823 -0.863989 2.277595
7.406892 -0.313056 2.493325
7.517453 -0.257076 2.611557
-0.751277 0.194565 0.854382
7.541518 -0.292989 2.508430
-1.486840 -0.308357 0.578830
7.288088 0.081424 2.158033
7.561345 -1.542280 2.055709
7.786825 -1.052539 2.084903
7.612202 -1.070425 1.999201
7.988836 -0.613555 2.636841
6.959457 -0.660561 1.948411
7.618968 -1.290221 2.162958
7.374684 -0.319267 2.479498
7.360016 -1.656104 1.998856
-1.469237 -0.254664 0.579120
7.146768 -1.007651 1.781610
6.929979 -0.058757 2.507789
7.412896 -0.582568 2.070857
7.429957 -0.563414 1.939126
7.404452 -0.666110 2.149297
3.665600 0.582373 0.896954
7.171731 -1.530329 1.893144
7.730788 -0.164919 2.243202
7.393013 -0.848681 2.018455
7.508816 -0.272009 2.589520
7.578127 -0.120741 2.067883
7.817373 -1.518910 2.127312
7.488501 -1.066711 1.966908
7.674467 -0.005269 2.098556
7.117754 -0.668795 2.144309
8.190566 0.121640 2.686535
7.379554 -0.352293 2.030192
7.456577 -0.608065 2.040883
7.420747 -0.032272 1.907447
7.224319 -0.123910 1.850736
7.454940 -0.092326 2.660692
7.619240 -1.277598 2.170430
1.105546 0.371312 0.881762
3.412509 0.517523 0.991541
7.301148 0.146922 2.620534
7.065422 -0.120102 2.631590
7.307368 0.053303 2.153241
-1.513765 -0.258500 0.584401
2.443475 -0.158149 0.857938
7.555299 -1.286403 2.138695
7.445347 -1.524774 2.036313
6.302584 0.090148 1.902567
7.402587 -0.110423 2.622175
7.023892 0.277084 2.202193
14.710643 -5.772606 8.324390
4.465393 -1.366314 0.795853
6.911634 0.123220 2.508089
7.047298 0.089079 1.918141
7.997016 -0.029940 2.067032
7.530132 -0.257008 2.615561
7.460127 0.127928 2.101849
7.275545 0.118046 2.657762
7.539618 -0.587607 2.112622
2.565858 -0.013378 0.998763
-1.436089 -0.252800 0.611853
7.385966 0.125282 2.239240
7.589600 0.427755 2.453568
7.444157 -1.045299 1.902702
7.405646 0.130000 2.143502
7.858200 -0.909154 1.723378
1.253659 0.440467 0.848847
1.102906 -0.390851 0.529669
7.332940 -0.073448 2.658442
-1.355682 -0.245633 0.568919
7.460044 -0.153923 2.630947
7.193761 -0.317318 2.405566
-1.578897 -0.267221 0.657697
0.666058 0.442767 0.798862
2.464215 0.317300 1.092740
7.224319 -0.997895 1.867934
7.730736 -0.654614 2.210774
7.692230 -0.630473 2.130612
3.486748 0.370052 1.365055
3.474310 0.571910 0.858803
7.448205 -0.071017 2.689572
7.752451 -0.545890 2.693760
7.301923 -0.162006 2.524947
2.175261 -0.267765 0.867516
-1.459658 -0.241617 0.575446
7.288171 -0.091717 2.068131
7.525564 -0.621252 2.066289
-1.378107 -0.247060 0.596455
1.371498 0.355917 0.896610
-1.503500 -0.333606 0.606814
1.253440 0.365944 0.893960
-0.714477 0.236847 0.895857
0.626447 0.123401 0.917491
1.272205 0.366653 0.899586
3.417624 0.520674 0.979158
7.286529 -0.150921 2.548563
2.043448 0.339728 1.063894
7.500793 0.008746 2.763891
7.682789 0.148760 2.858500
7.397093 -0.159387 2.551814
7.455759 -1.059737 1.989009
8.271878 -0.472766 2.748024
8.009959 -1.069914 1.770291
12.822350 -5.478024 10.152734
5.414052 -1.600137 1.229349
10.826305 -2.371930 4.810962
7.667442 -1.083302 2.005851
7.601099 -1.629730 2.022283
7.533261 -0.342318 2.528645
7.277617 0.135111 2.102328
7.188644 -0.904528 1.624113
7.659951 -0.956952 1.726127
-1.048419 0.099054 0.489771
11.430202 -5.989933 7.208970
2.181915 0.372501 1.173297
7.325338 -0.448936 2.385089
7.537695 -0.656136 2.213368
7.611422 -0.324887 2.600575
0.381010 -0.307011 0.698244
1.408419 0.355717 0.889834
-1.410506 -0.278177 0.588556
7.507415 -0.180699 2.099999
7.900559 -0.839693 1.791640
0.969651 0.350046 0.861068
2.097955 -0.775693 0.752887
2.068303 0.217120 1.179797
1.389001 0.367125 0.900047
-0.991717 0.186437 0.795008
2.097573 -0.775994 0.753950
1.083401 -0.538967 0.515263
1.487297 -0.050623 0.736331
7.521955 -0.022448 2.609920
2.563088 -0.044997 0.954493
6.892410 -0.594992 2.245340
-1.492751 -0.312755 0.579644
7.440685 -0.956782 2.056406
11.760435 -2.127936 7.185141
7.640026 -0.978958 2.000676
2.533152 0.303631 1.114850
7.444052 -0.353886 2.042664
3.310076 0.366242 1.342439
8.199651 -0.481797 2.761301
8.300954 -0.523369 2.810235
6.953060 -1.466958 1.647576
3.744425 0.666612 0.918297
3.497783 0.674023 0.719302
7.459452 -0.740020 2.345807
3.465767 0.368936 1.346371
2.094822 -0.776113 0.753746
7.489010 -0.554166 2.409781
7.519771 -0.177663 2.855531
3.093152 0.386370 1.201421
5.166457 -1.309708 1.201816
6.356959 -1.328101 1.457777
7.840902 -0.629064 2.608207
2.948671 -0.885986 0.593903
7.493330 -0.848962 2.040189
1.291379 0.404502 0.881703
7.136748 -1.015323 1.857983
7.429255 -0.462991 2.431877
7.359830 -0.444870 2.407483
7.194545 0.136536 1.853638
7.751560 0.144969 2.521944
12.180490 -6.295519 5.225295
11.184019 -4.852913 6.948359
3.500906 0.509346 1.048701
9.808279 -2.367639 4.982606
7.782102 -1.135944 2.082884
1.833943 -0.579544 0.817981
1.834749 -0.580251 0.819723
8.671924 -1.135529 3.516916
1.833120 -0.579525 0.822227
7.920950 -0.865464 1.662526
7.596841 -1.018817 1.571085
7.840900 -1.051847 1.702039
5.073821 -1.278308 1.172336
7.656991 -1.287987 2.186684
3.364892 0.348936 1.367606
7.508896 0.115517 2.112394
3.361584 0.548743 0.848243
16.106171 -4.024480 7.737468
0.916882 0.020637 0.718890
2.098187 -0.776009 0.753588
2.179635 0.311328 1.122368
7.556349 -0.721702 2.173819
7.952432 -1.650193 2.124252
7.622428 -0.128474 2.031002
8.095748 -1.298364 1.674685
7.700697 -1.004486 1.735539
7.713230 -1.238510 2.268764
7.192821 -0.477228 2.736893
7.140387 -0.485760 2.725324
6.980595 0.152098 2.168934
2.973192 -0.899345 0.601443
7.374638 -0.677963 2.214484
7.794589 -1.105647 1.760036
3.415879 0.579703 0.844405
7.446845 -1.510475 2.007802
7.470895 -0.795265 2.111177
-11.011219 2.923378 5.623695
7.990793 0.089549 1.925841
7.706701 -0.109801 2.062154
1.441261 0.467930 0.862707
1.089894 -0.536967 0.494957
14.539825 -2.389640 5.253819
9.214496 -0.996939 2.002138
1.089564 -0.522754 0.503433
2.190767 -1.251527 0.648996
7.594533 -0.441311 2.716044
1.053732 -0.538913 0.511660
2.136999 -0.809032 0.742098
1.154467 -0.609886 0.468619
7.616703 -0.545412 2.630766
1.107506 -0.606182 0.463884
6.281375 -2.232046 1.685422
1.158034 -0.611272 0.467666
1.167426 0.364010 0.877916
2.526660 0.330916 1.130952
7.647633 -0.754835 2.431681
1.091068 -0.539462 0.500156
2.033860 -0.004900 1.081487
2.219625 -1.264755 0.655367
2.515387 0.002810 0.981638
7.501939 0.025722 2.668476
1.200583 0.468246 0.877034
1.156415 -0.608436 0.466954
1.032617 -0.528692 0.492395
1.156381 -0.609094 0.468573
7.959693 -1.275525 4.132319
7.577385 -1.772289 2.156639
7.915507 -1.263067 4.086640
16.044691 -2.915262 6.765092
3.454463 0.617150 0.792825
2.412887 0.536225 0.900956
2.543639 0.404104 1.177472
2.010267 -0.573393 0.830346
2.537197 -0.111418 0.952717
7.377237 -1.506156 5.294188
3.500426 0.639019 0.813612
4.992430 -1.449498 1.409037
1.491965 -0.549688 0.594067
1.868478 -0.184600 1.068181
1.948043 -0.626555 0.804653
3.436332 0.592357 0.858720
6.415513 -1.377281 1.753540
1.867357 -0.189863 1.062140
7.448654 -1.610884 1.738172
1.602414 -0.711904 0.787580
1.808949 -0.407850 0.902970
7.980256 -1.543845 4.575627
8.436449 -1.861457 5.430954
3.459708 0.375034 1.342007
1.935195 -0.797320 0.728729
8.698244 -3.227357 6.093842
1.489715 -0.810799 0.865899
7.729680 -0.935733 4.566118
7.955496 -1.305796 3.519169
3.548930 0.657650 0.831790
16.651670 -3.052997 7.038010
7.467866 -0.318750 2.565424
7.459348 -0.679285 2.229295
1.893169 -0.629856 0.804997
3.454446 -0.842989 1.049413
7.687739 -0.716566 2.320942
7.036799 -0.557029 3.194498
8.275739 -1.705722 3.072437
21.811388 -4.063302 8.886685
2.006747 -0.524476 0.858590
3.457001 0.670065 0.703645
1.846690 -0.453662 0.864528
7.738874 -1.510009 5.823804
1.805228 -0.391282 0.897920
7.922628 -1.169724 5.151960
7.058200 -0.499526 3.226215
3.429499 0.643428 0.707513
5.077145 -1.352643 1.358958
1.792683 0.024294 1.128519
3.499307 0.515102 1.044643
7.319271 -1.418047 5.419955
3.433160 0.644675 0.708316
7.282479 -1.067348 4.597291
8.772899 -2.966484 5.759272
7.258239 -0.698005 3.615490
7.916164 -2.465479 3.687496
1.926467 -0.796151 0.727683
2.556061 0.148839 1.056708
7.098885 -1.252712 4.928864
1.815851 -0.403884 0.890087
7.356218 -0.509131 2.400338
3.414884 0.366297 1.302378
2.554703 -0.119883 0.982149
1.196090 0.447620 0.871239
13.745372 -2.250108 4.942309
-0.782458 0.190277 0.912734
2.021100 -0.668650 0.792820
10.045794 -0.282372 2.503094
-0.580016 -0.543320 0.584538
7.404251 -0.864229 1.624314
7.696737 -0.642492 1.757182
0.650926 0.453909 0.813965
0.961082 -0.133132 0.679740
10.348157 -4.013916 7.137581
1.110453 -0.604327 0.461279
2.044688 -0.080981 1.045956
1.095817 -0.522763 0.487314
2.408057 0.514153 0.865879
6.982395 -0.029359 2.731425
1.939775 -0.653789 0.794191
2.024976 0.169933 1.155730
1.108790 -0.607362 0.463405
6.798176 -1.571370 1.964555
2.037147 -0.077695 1.041296
7.239882 -0.339638 2.862866
5.120848 -1.291901 1.184719
1.108515 -0.605767 0.462525
1.038318 -0.517622 0.497557
2.424656 0.520679 0.874549
1.956143 -0.585101 0.832600
7.565071 -0.652634 2.227649
-1.154038 0.349105 0.658820
2.151321 0.368123 1.142552
7.414483 -0.568871 1.942470
7.381167 0.095003 2.197281
1.155342 -0.610477 0.469225
7.337177 -0.547502 1.899803
2.164608 0.352798 1.071038
7.219106 -0.204476 1.998080
1.032114 -0.476735 0.519757
18.012814 -3.399998 7.760341
8.115448 -0.471392 3.486863
6.983714 -0.315921 2.978292
-0.756116 -0.039116 0.817869
8.174681 0.365896 2.620339
8.160292 -1.394517 1.676435
7.868292 -0.987087 2.131371
3.492761 0.682653 0.715535
3.428765 0.635892 0.703670
2.688755 -1.119216 0.508943
7.478214 -0.514319 2.896343
8.100926 -1.141976 1.751163
1.887810 -0.584630 0.825875
1.871102 -0.175319 1.053951
1.035281 -0.490406 0.514381
1.137500 -0.379817 0.564420
1.832586 -0.583027 0.831466
2.031404 -0.080137 1.034451
7.433453 -1.050443 1.863571
16.911005 -2.817039 6.150454
8.109428 -0.481889 3.484855
6.529910 -0.518501 2.735947
2.035002 -0.078511 1.041937
1.135898 -0.383305 0.566084
1.094086 -0.537485 0.495909
8.132215 -1.391096 1.673773
7.308251 -0.593192 2.733639
1.897642 -0.635466 0.806293
1.089277 -0.537956 0.497618
1.137212 -0.381308 0.563832
2.153644 -0.817888 0.751037
1.132306 -0.384279 0.565880
1.034157 -0.531652 0.493881
2.613809 -0.590149 0.727808
7.584863 -0.099615 2.985738
2.140623 -0.814386 0.744941
7.038158 -0.563972 3.177565
8.128009 -0.485746 3.490937
20.643539 -3.949623 8.977129
7.422588 -1.576887 1.961245
2.017033 0.282172 1.370357
-0.814110 0.190011 0.922838
7.471635 -0.348571 2.056594
7.628104 0.123693 2.155300
1.068362 0.356587 0.902037
7.626667 -0.456786 2.909714
7.798454 -1.615171 2.132034
1.885166 -0.593257 0.823984
12.226391 0.102549 2.852835
0.917477 0.066790 0.750155
2.432682 0.355973 1.138440
6.864749 -0.302379 2.904882
2.021012 -0.671003 0.795776
1.828339 -0.572302 0.822443
2.182186 0.312315 1.131534
2.523498 0.096234 1.037312
2.026155 0.171642 1.152988
7.339292 -0.811955 4.220953
1.943929 -0.637779 0.788585
5.057311 -1.339551 1.349062
1.716493 -0.086948 1.024606
2.513349 0.177523 1.066474
2.534855 0.008585 0.995507
2.506184 0.239435 1.088498
2.005790 0.014706 1.155425
7.135288 -1.939035 2.366405
2.485315 0.329112 1.137619
16.729263 -3.030452 6.672163
2.051337 -0.155689 1.013615
1.820569 -0.518945 0.843316
1.889936 -1.155314 0.745744
8.213394 -1.013740 1.605144
1.961473 0.135710 1.172089
1.819251 -0.526915 0.844243
1.938508 -0.661908 0.796310
7.325554 -0.487580 2.812683
1.884650 -0.586902 0.827681
1.888976 -1.149996 0.741012
6.965909 -1.437480 1.569738
7.751641 -1.238876 1.583785
2.475706 0.326858 1.123632
2.007134 -0.569105 0.829748
5.795701 -1.695747 1.937826
1.821712 -0.522126 0.847708
2.100857 -0.774972 0.751748
3.534395 0.516280 1.012502
2.032622 -1.139129 0.744603
1.888736 -1.150021 0.742565
1.587556 -0.497695 0.961596
2.019445 -1.210114 0.617308
3.436864 0.473887 1.141507
1.027603 -0.532480 0.496376
6.404450 -1.322544 1.247729
8.647241 -1.352815 4.299512
1.191612 0.459465 0.877190
1.105967 -0.607862 0.462013
1.115823 0.362978 0.876682
1.070671 -0.350622 0.581193
7.120588 -0.663014 3.507536
2.673683 -1.112636 0.458113
7.046395 -0.571716 3.211312
2.630070 -0.596848 0.733820
1.940071 -0.676066 0.824062
6.982330 -0.664296 3.403567
6.958861 -0.561246 3.174469
1.888567 -1.153828 0.739950
2.664490 -0.817608 0.645189
2.538126 -0.117359 0.947040
5.639200 -3.912332 7.202965
1.414969 0.310223 1.043763
7.283517 -5.178896 26.138391
1.414699 0.314988 1.043438
3.446261 0.385182 1.356323
3.441739 0.379598 1.349800
6.931672 -1.374570 4.835765
7.970987 -2.717745 8.948623
2.451059 -3.434937 6.545166
5.667023 -3.999682 7.345325
7.295096 -2.589045 8.306115
2.512730 -3.179154 6.080945
6.594746 -3.302113 6.408068
5.463402 -3.735368 6.891972
7.480603 -1.540608 4.612453
6.988458 -2.450579 7.829808
5.580604 -4.022957 7.374295
1.814640 -0.570404 0.831739
3.389148 -3.373495 6.268591
5.373317 -1.649816 6.496822
7.908808 -4.371479 8.433537
4.994907 -5.455926 11.721340
1.413176 0.298573 1.036571
7.222367 -4.176974 10.778464
7.186192 -3.400986 9.548960
16.487288 -2.954431 6.564524
5.105637 -1.363183 1.365054
7.901636 -1.684459 5.024496
7.416304 -0.142451 2.775099
8.552271 -2.522988 4.723325
1.817459 -0.481212 0.881069
7.489379 0.093719 2.234751
1.889959 -0.639426 0.805027
8.694488 -1.101750 3.515767
2.404112 0.381138 1.156813
11.408794 0.128957 2.643545
7.385159 -0.028722 2.904972
6.800653 -1.407484 1.527190
2.113324 -1.240337 0.637136
7.620686 -0.023819 3.008255
2.008952 -0.517718 0.860283
7.572682 -0.661613 2.217739
7.481451 -0.744923 2.354825
8.291778 -1.276518 4.072889
7.511685 -1.282337 2.120560
8.390368 -1.317701 4.397474
7.445728 -0.126835 3.213214
2.656430 -0.966641 0.564320
2.011196 -1.190201 0.609379
1.026339 -0.534072 0.496270
11.649912 0.105099 2.703584
1.834556 -0.681184 0.783047
7.884621 -1.138798 4.327152
7.604233 -0.009623 1.877429
7.682964 -1.290787 1.568661
1.830461 -0.676091 0.782184
2.011335 -0.517273 0.860791
2.650172 -0.959037 0.561992
2.650405 -0.959737 0.561565
3.379692 0.618245 0.683684
7.833491 0.327717 2.494151
7.482236 -0.885309 2.076535
7.445749 -0.613858 2.798553
7.383141 -0.891839 1.964409
7.686924 -1.796581 2.234757
7.472199 -0.733641 2.355093
7.230609 -0.699963 2.278788
7.612982 -0.118263 2.890753
7.441883 0.088458 2.220587
8.132253 -1.255304 1.824695
7.288096 -1.076152 1.608319
7.486472 -1.044359 1.928571
8.262397 -1.708793 3.061090
8.137529 -1.784054 2.933671
3.515758 0.670797 0.742163
3.437077 -0.826184 1.034282
7.504712 -0.321495 2.583993
8.961302 -1.782289 5.169409
1.767089 -0.785531 0.729185
6.094595 -1.248399 1.384185
1.778294 -0.778660 0.722945
19.228544 -3.840206 8.740508
5.217170 -5.747734 10.983444
7.343729 -6.044960 12.477575
6.862225 -2.776340 8.298949
6.639925 -2.858442 8.370374
2.542973 0.406074 1.182650
5.525427 -3.243167 14.692402
1.425218 0.311797 1.035996
2.539052 0.396716 1.176508
1.403620 0.309332 1.046228
4.816974 -3.009194 5.209724
1.938611 -0.580952 0.829929
7.756197 -3.841003 8.928395
8.678691 -1.930418 5.698986
6.440338 -2.753842 6.667763
8.078734 -1.745702 5.202815
7.632252 -0.261416 2.673948
3.426979 0.378224 1.322371
7.139732 -0.511128 3.271865
7.481050 -0.445355 2.497236
6.964227 -0.665410 3.393677
6.898154 -0.664540 3.352880
8.172032 -1.250849 4.001430
7.577430 -1.264971 2.156944
7.443292 -0.454438 2.837980
7.557047 -1.613326 2.005143
7.453940 -0.219730 2.068829
7.234969 -1.011036 4.498969
7.176984 -0.373247 2.913134
2.534861 -0.054219 0.978252
7.177995 -1.130582 4.061644
1.838122 -0.497027 0.802146
5.107553 -1.366534 1.365450
10.474321 -1.309589 3.658823
7.366006 -0.638083 2.972821
2.538021 -0.113166 0.951750
1.707528 -0.089817 1.035487
7.086499 -0.635782 3.508237
2.537048 -0.112404 0.955575
1.869266 -0.182413 1.075894
7.515763 -0.844452 4.361140
2.271380 0.483441 0.958656
1.672021 0.163917 1.166638
1.438694 0.359962 0.909463
7.506258 -3.961398 8.178940
4.907176 -3.731601 6.759314
8.969755 -1.446364 5.823253
2.281479 -1.010522 2.657526
7.713360 -1.166624 4.689838
7.576831 -3.705045 8.447123
6.957931 -2.848939 8.492156
2.541537 -0.109751 0.951249
6.968487 -1.117399 4.197371
8.265507 -0.303479 2.984038
3.424185 0.372663 1.319335
9.385886 -1.495698 7.765990
7.212516 -1.170150 4.432211
6.982774 -2.190700 7.201274
7.324495 -3.849553 9.869292
7.258415 -1.201076 4.496473
7.122519 -0.704792 4.417122
2.014469 -0.515378 0.859215
6.862328 -2.076114 7.077772
1.382277 0.369247 0.921851
10.914227 -3.071317 11.158216
3.955136 -1.764634 2.060891
7.299908 -0.308621 2.428127
5.457959 -1.621568 1.954359
7.452390 -0.324840 2.496351
5.608543 -2.032646 2.761390
7.282546 -3.374939 8.097419
4.920028 -2.704203 4.822076
8.907833 -1.791650 5.347015
1.898481 -0.634552 0.803309
2.000345 -0.522131 0.859961
2.033916 -0.084691 1.063388
6.130248 -1.988402 6.447865
5.342066 -1.560519 1.896015
5.549370 -1.995319 2.694113
1.474985 -0.550882 0.595293
6.314668 -0.516625 3.450680
17.947992 -3.280543 7.210789
7.123180 -0.630805 3.542055
7.295941 -1.054337 4.262975
6.805976 -0.307429 2.846884
17.292171 -3.584621 9.068226
8.102383 -0.467411 3.734112
7.688807 -0.681800 2.263310
7.599153 -1.075600 2.059007
4.318055 -1.574783 2.228996
8.095590 -4.523788 9.301322
5.216758 -3.108448 8.013165
7.548244 -1.185194 4.903879
3.533240 0.511967 1.004579
7.228725 -1.489296 5.131929
4.682678 -4.273114 7.714888
3.529658 0.508868 1.001929
7.371221 -3.858777 7.338231
3.523767 0.400246 1.466657
7.790668 -1.232803 5.188040
1.714163 -0.083255 1.036626
1.397420 0.361557 0.942086
8.590209 -2.764578 4.125746
6.454520 -0.241407 2.066195
6.263078 -2.166393 6.941283
1.523105 0.329099 0.888093
3.277832 -3.198459 6.027198
5.453769 -1.919261 2.625681
6.819218 -2.239053 7.478439
7.886996 -4.593303 12.980177
1.827657 -0.486672 0.879073
6.970266 -0.630632 3.413503
7.933507 -1.404221 3.941012
2.563603 0.301554 1.201873
2.328670 -1.405778 2.466988
2.387560 -1.649589 2.498909
2.298867 -0.975954 2.656594
2.565234 0.209018 1.098251
2.370250 -1.224401 4.618029
2.547957 0.394808 1.169391
2.652842 -0.564256 0.984210
2.378083 -2.361263 7.126696
4.347768 -1.840541 1.898690
3.595561 -3.953558 7.119829
2.573437 0.130681 1.056615
2.550899 0.227276 1.165022
2.180474 -2.961203 8.992622
1.393376 0.229638 1.025924
2.650236 -0.567062 0.985925
4.324326 -2.134399 3.814334
3.415467 0.500277 0.981723
6.087098 -4.604202 9.449624
2.529007 0.394332 1.180697
2.652794 -0.571363 0.982035
6.830233 -1.301472 4.966351
2.620248 0.189523 1.073380
7.337794 -3.140187 9.308421
6.997619 -4.674811 10.480527
3.157005 -2.609299 6.311561
2.341912 -1.168119 2.776419
2.357940 -1.145438 2.723966
6.776074 -0.864085 4.473837
3.412753 0.459807 1.125370
2.307853 -1.407959 2.502241
4.014102 -1.929207 2.194689
7.854693 -0.570207 4.490798
8.131992 -4.862027 13.590214
2.252316 -1.458313 2.658747
7.689115 -1.460271 5.668831
3.412057 0.456995 1.120312
8.729360 -0.674426 5.237498
3.413924 0.409769 1.295907
8.274410 -0.787445 5.258309
10.266367 -0.862778 6.591326
3.443283 0.480788 1.055940
6.044936 -0.386400 2.510390
2.623147 -0.953941 1.359186
10.559242 -2.676743 7.306814
7.204160 -0.816213 4.622877
6.819723 -2.266882 7.466468
3.238003 -0.923148 1.217079
5.162085 -1.314876 5.524332
2.581481 -0.027003 0.989112
5.614952 -6.737321 12.818152
6.826640 -3.013875 8.708798
7.724157 -4.538435 12.541739
8.432959 -14.875851 30.715971
1.445423 -0.507814 0.655620
7.589931 -4.862054 13.497162
1.508145 -0.531235 0.598076
7.573372 -6.247691 17.070362
2.290778 -0.169372 0.611672
7.341016 -5.933893 16.282103
10.198840 -2.578210 9.403995
9.858689 -2.461253 8.994185
7.457458 -0.966213 5.549412
5.292688 -0.568584 1.639812
2.598874 -0.218930 0.898996
7.812353 -0.518395 3.204799
8.187353 -0.739132 4.956155
3.699319 -0.877650 0.954919
36.363163 -11.202590 31.254993
8.981880 -5.381126 4.213316
-12.163066 -6.150210 7.121692
5.017140 -0.440343 1.935599
3.269316 -0.940976 1.809009
0.737011 0.797540 2.620444
4.137873 -2.227131 1.512853
6.165824 2.957054 2.819102
4.335972 -0.440714 2.096951
9.675696 -0.902770 4.342977
10.879717 -1.482477 8.477249
10.147825 -14.536508 30.510359
5.772410 -4.884393 8.884523
10.365913 -1.388982 7.949155
4.059589 -1.551409 1.457497
10.387162 -1.384865 7.966266
8.075490 -3.676731 10.813569
2.307818 -1.420579 2.523171
10.574426 -6.668681 19.890076
9.351365 -8.188342 16.204603
4.034237 -1.540659 1.487216
8.325743 -4.724332 8.825350
6.004189 -0.413577 3.034776
4.047455 -1.548203 1.478950
10.670921 -10.978394 21.615387
7.401612 -3.134043 8.564391
4.008104 -1.930150 2.182398
2.726685 -0.158231 1.038280
9.307628 -4.892657 9.002037
1.444538 -0.549397 0.613796
1.439886 -0.550630 0.614602
2.125679 0.346629 1.210914
10.952061 -5.613119 10.093425
8.638505 -8.559422 20.819550
4.041519 -1.497703 1.389725
4.498019 -0.224543 1.465965
8.045903 -6.164956 16.380867
3.431768 0.441678 1.110699
3.159072 -0.921828 1.477858
8.231683 -1.211600 5.398156
8.396802 -5.875521 15.212733
9.480643 -2.483689 8.826624
2.485065 -1.437051 3.032957
4.275397 -1.719014 1.812378
7.004446 -3.548484 6.724552
4.981214 -4.835944 9.266831
2.851202 -0.064895 0.624801
2.586813 -0.124056 1.009213
2.351860 -1.215898 1.991820
2.602153 -0.237707 0.977805
2.146101 -1.474005 5.575714
6.016692 -5.268065 10.152549
5.738376 -7.577600 13.238086
6.413840 -0.456272 2.401075
3.819443 -1.293619 1.232359
2.356984 -1.209117 1.983051
2.594309 -0.121843 1.005666
3.388798 -1.256246 1.877791
2.144476 -1.474182 5.583851
2.544946 -0.087988 1.761023
3.366414 0.361742 1.280377
2.080092 -1.567901 5.884120
3.528017 0.307620 1.360642
2.362540 -1.195109 2.721546
9.952350 -1.564844 8.603353
2.594972 -0.122857 1.004990
3.377001 -1.180368 1.802632
2.293443 -0.962026 2.695769
2.582350 0.006259 1.059445
3.495795 0.426048 1.128642
3.737739 0.151262 1.808491
1.411193 0.230361 1.021674
2.632993 -0.947862 1.337847
3.418891 -1.504969 2.371549
2.591514 -0.028221 0.986852
2.582178 -0.081006 1.027245
2.657499 -0.577387 0.975354
2.264261 -1.450639 2.626653
3.527683 -2.725966 8.626081
7.669350 -3.978824 8.397606
2.298944 -0.663382 2.756712
2.596913 -0.120666 1.004340
2.308277 -1.414361 2.532820
4.027636 -1.980450 2.246643
2.573847 0.053689 1.032618
2.657502 -0.577397 0.975353
2.277920 -1.444562 2.611631
2.329570 -1.401507 2.500850
3.684206 -1.794002 2.450534
3.699557 -1.848302 2.489228
8.123598 -4.398365 9.182313
162.770569 -120.578674 313.010559
3.508596 0.433663 1.137381
2.561880 -0.082177 1.735143
2.319154 -0.655055 2.727378
9.377223 -0.019503 4.165852
4.332131 -2.197444 2.444905
2.619100 -0.249892 0.977355
3.416553 0.457201 1.120525
2.318365 -0.651458 2.730309
3.664104 -1.714703 2.344333
5.620344 -2.057588 2.774364
4.273238 -1.884824 2.030177
2.582243 0.074213 1.086338
6.405250 -5.097406 9.219696
4.305169 -1.755305 1.845732
5.273012 -0.357516 2.462124
2.665897 -0.484493 0.925208
2.648167 -0.574067 0.972492
2.457377 -3.641564 6.993910
3.102491 -1.018779 1.580189
4.660948 -0.458672 1.685622
5.681501 -2.083259 2.762805
3.522222 0.311919 1.350977
2.559788 0.391705 1.164610
5.531193 -2.347871 8.452280
5.339860 -4.022160 12.889746
3.756058 0.177988 1.847857
5.591292 -0.637539 2.149445
2.661268 -0.542508 0.905805
4.617227 -0.446743 1.650683
3.556595 0.278297 1.368454
5.257197 -0.592858 2.004042
4.138314 -0.303481 1.288338
5.969455 -1.003317 2.346626
2.557314 0.306355 1.206224
2.618351 0.188444 1.221428
2.863509 -1.297656 1.859659
2.672578 -0.739721 0.922556
3.594910 -1.752076 1.689885
3.473952 0.324796 1.440652
2.659954 -0.262773 1.018410
2.492312 -1.796428 2.994749
5.603196 -3.624012 6.087382
2.453266 0.245799 1.515607
4.011089 -1.395265 1.321191
6.680973 -1.264558 5.682837
2.623098 -0.557471 0.909816
2.322307 -1.254986 2.030746
2.676790 -0.265265 1.009963
2.464065 -2.449677 3.761946
5.049105 -0.460965 2.023446
4.882918 -0.288497 1.794985
5.641151 -5.457835 9.713701
2.545849 -1.057001 1.421193
2.420331 0.253363 1.545006
3.560352 0.293274 1.385002
3.542354 0.359946 1.272750
4.053519 -1.657164 1.650865
2.645312 -0.679665 0.827441
5.132281 -0.480866 1.971941
2.387118 -1.182062 2.681316
4.622908 -0.304807 1.737256
4.084662 -0.240936 1.276205
4.358180 -0.308440 1.528301
5.648035 -0.617164 2.460280
2.557266 0.012241 1.761667
3.543803 0.365557 1.281397
3.520066 0.325919 1.332484
6.163599 -2.587635 3.873752
3.704962 -1.359014 1.931741
5.004363 -0.846126 2.069014
3.980635 -1.328612 1.302268
3.573653 -1.528543 1.549131
2.215389 -0.585406 3.267380
5.068662 -0.266768 1.808841
5.408277 -0.335410 2.032951
2.571659 -0.080144 1.029245
4.268942 -1.757273 1.979795
5.270144 -0.559381 2.069345
2.646669 -0.515318 0.922516
3.729045 -1.629930 2.216605
2.658997 -0.509431 0.918023
1.032427 -0.515517 0.813677
3.558108 -3.542166 11.247240
4.998599 -3.774386 6.367472
2.347129 -1.220338 2.772505
2.608029 -0.227822 0.897778
4.607255 -0.624984 2.478343
2.594317 -1.021798 1.373691
2.588977 -0.242678 0.984262
2.584894 0.055940 1.022114
2.191038 -1.590405 2.717308
5.847691 -4.317972 7.198801
2.650455 -0.513756 0.918916
2.538926 -0.054698 1.782077
3.202637 -0.365689 0.846897
3.449640 0.188666 1.167742
4.298543 -1.818944 2.036952
3.533456 0.293400 1.295853
2.595283 -1.019992 1.372659
2.592612 -0.242514 0.982695
2.660431 -0.507608 0.917665
4.062408 -0.272154 1.179711
2.471717 0.250961 1.475004
3.533144 0.292961 1.295444
2.587627 -1.022921 1.375656
2.416937 0.155736 1.756378
2.576335 0.059010 1.026415
3.592655 -1.725823 1.675479
2.591415 -0.239338 0.983506
2.452833 -1.894984 3.069929
2.561589 0.302665 1.203025
4.575505 -0.235372 1.514608
2.626397 -0.555131 0.908679
4.324032 -1.875316 2.074854
3.597537 -1.776262 1.703758
3.473558 0.323169 1.437687
2.437374 -3.272175 7.649816
2.562594 0.299534 1.201478
4.662601 -0.242801 1.784557
2.541595 0.155328 1.126014
4.135268 -1.892987 1.803273
1.140020 0.393073 0.906397
2.644665 0.192585 1.121130
1.163826 0.356833 0.887766
2.482790 0.042080 0.989408
0.988909 0.228574 0.831061
2.609782 -0.097327 0.999431
0.921021 0.341237 0.877619
2.651630 0.102294 1.080711
-1.640232 -0.270645 0.605961
0.894173 0.443553 0.860144
2.177594 0.309243 1.116906
1.389005 0.364477 0.904159
0.626750 0.443506 0.660293
0.403483 0.289156 0.903056
2.707082 0.283080 1.166993
2.566821 0.092795 1.052708
0.679476 0.513181 0.757608
3.430801 0.381087 1.400693
2.673214 0.037739 1.064733
-0.844995 0.210939 1.051626
-1.815677 -0.314406 0.519947
1.066105 0.386931 0.890631
2.488563 0.069764 0.993469
2.324252 0.344929 1.080245
2.512042 0.043336 1.002014
2.436903 -0.023564 0.937412
2.664932 -0.099048 1.022278
2.819016 0.119785 1.158563
1.114129 -0.545705 0.532070
2.470418 0.365928 1.150697
2.352862 0.346794 1.129963
2.216819 -0.318317 0.858448
0.480008 -0.404802 0.608319
1.141076 -0.602504 0.466470
2.226683 0.297842 1.135313
2.433736 0.316961 1.094284
-1.580139 -0.251379 0.557369
0.427225 0.072203 0.920817
2.719250 0.197057 1.152685
2.552708 -0.004964 0.987581
0.867409 0.410503 0.861692
-1.695845 -0.316018 0.527618
0.896631 0.441324 0.859609
0.323971 -0.370349 0.687814
0.029135 -0.570304 0.606776
3.433287 0.431355 1.126977
2.600911 0.321669 0.520618
3.607988 -0.131142 0.979974
3.422474 0.432109 1.090920
3.170305 0.460286 0.689448
3.901048 0.715564 1.161224
2.561944 0.392128 0.442651
3.309433 0.152126 0.772550
0.514863 -0.329847 0.683273
0.491437 -0.309156 0.641519
1.268952 0.451750 0.852212
1.057060 -0.517502 0.503771
1.254482 0.444723 0.842677
0.410568 0.288674 0.922080
-0.686347 -0.035853 0.783655
1.039541 0.350284 0.884557
0.488421 -0.308582 0.636416
1.159464 0.179631 0.816677
1.307104 0.463992 0.884627
0.597258 0.339440 1.041387
0.781701 0.086301 0.884267
0.667530 0.476869 0.720107
1.096615 -0.425685 0.533806
-0.684050 -0.452084 0.693629
0.672193 0.483737 0.742159
1.523945 0.278350 0.910947
2.039258 0.247031 1.188826
1.159553 0.170278 0.818204
0.933369 0.333196 0.879507
-1.815981 -0.396602 0.520902
0.936363 0.192380 0.806182
0.320847 0.454780 0.679275
-0.651270 -0.037298 0.759894
2.612592 -0.045537 1.003867
2.542046 -0.096689 0.978681
2.665472 0.067819 1.071859
1.361516 0.484060 0.941233
1.188354 -0.468714 0.567679
1.963514 -0.164143 0.809746
-1.905071 -0.281661 0.540740
2.224367 0.298196 1.133080
2.488815 0.317517 1.142057
-1.707850 -0.260599 0.549224
-1.585540 -0.253577 0.557630
1.173082 0.339585 0.880488
3.053223 0.170252 1.280785
-0.669746 -0.037883 0.771204
0.910954 0.347201 0.860222
2.139716 0.275706 0.959465
2.540799 0.228335 1.088865
-1.890337 -0.274997 0.539553
2.386661 0.361318 1.112490
2.217227 0.376183 1.187616
2.500763 0.171887 1.059312
1.170656 0.182700 0.820924
1.100819 0.371325 0.882535
1.136038 0.117848 0.771552
1.096261 -0.489547 0.549893
1.097633 0.366873 0.882283
1.031169 -0.529321 0.497626
2.131590 0.939305 0.918848
1.460446 0.276928 0.873378
0.893454 0.442120 0.858563
0.857962 0.418214 0.884953
-1.562775 -0.228836 0.512764
-1.585706 -0.248012 0.542741
2.361284 0.190048 1.161595
-1.613992 -0.252506 0.566980
-1.596632 -0.245944 0.560369
0.367612 -0.318925 0.724938
2.188069 0.310610 1.123182
2.531470 0.285615 1.115123
1.404856 0.447190 0.983144
2.387253 0.361969 1.114037
2.577775 0.179159 1.092718
3.412072 0.487730 0.961538
2.563132 0.069580 1.038273
1.138160 -0.169066 0.636026
3.383821 0.390602 1.239342
3.334376 0.509284 0.950310
2.524363 0.069285 1.023191
2.483536 0.067095 0.971737
-2.228183 -0.357114 0.905537
0.983168 0.359441 0.890454
-0.671274 -0.548784 0.727699
-1.683857 -0.242384 0.533850
-0.708672 0.229924 0.883829
-0.814993 -0.384062 0.824848
0.862376 0.394967 0.834133
-1.415818 -0.334766 0.505808
3.475988 0.554078 0.847966
-2.754633 -0.594844 0.943703
-1.604165 -0.247661 0.519897
2.476465 0.028861 0.974603
-1.163115 -0.181081 0.376651
-1.678233 -0.252847 0.528850
1.087548 -0.525392 0.509175
2.571213 0.039712 1.023126
2.466234 0.327152 1.118985
1.298152 0.463917 0.878096
-1.357406 -0.283938 0.569954
-1.553845 -0.301778 0.531692
0.891495 0.441596 0.856728
1.406398 0.368071 0.903891
-1.538636 -0.338174 0.448749
-0.666773 0.013425 0.817616
-1.412392 -0.292067 0.532032
2.682509 0.366984 1.226003
3.119739 0.270349 1.261314
2.740913 0.265514 1.155627
2.519837 0.233383 1.096574
2.585504 -0.117164 0.970238
2.116194 0.151335 1.025808
1.148063 0.418014 0.927298
1.040930 0.349144 0.882823
-1.615667 -0.252035 0.556714
2.652079 -0.787372 0.657422
2.646932 -0.096752 0.995524
2.494294 -0.106319 0.930017
2.122408 0.168444 1.038265
1.393701 -0.186136 0.672967
-1.480975 -0.248430 0.637275
-0.640254 -0.543273 0.718076
-2.045018 -0.353179 0.594336
3.355395 0.173432 0.846306
3.571048 -0.358709 0.957405
2.147835 0.344800 1.125019
2.519085 0.206339 1.065671
0.878194 0.435463 0.845859
0.984209 0.228916 0.824063
-2.699599 -0.386585 0.923586
2.562919 0.126552 1.052740
1.354425 0.422035 0.926770
1.150280 0.424821 0.933184
3.429182 0.466847 1.132028
3.110429 0.430320 0.819068
3.246637 -0.170051 0.616463
7.303611 -0.459726 2.395823
2.947192 -0.209769 0.639532
1.067480 0.392667 0.898408
2.603127 0.008503 1.033376
0.857976 0.412884 0.893993
1.389018 0.366411 0.904737
1.346211 0.415674 0.921138
0.936265 0.206083 0.815876
2.319542 1.010397 0.999530
2.587864 0.235253 1.127426
1.068412 0.392028 0.896439
2.734953 0.131845 1.136652
2.872133 0.231637 1.216391
0.628314 0.121890 0.915295
1.716885 0.224136 0.926952
2.600292 0.179606 1.103111
2.394655 0.223402 1.017158
0.436791 -0.437903 0.604371
0.660731 0.448139 0.805329
0.887866 0.458067 0.788334
1.546327 -0.122529 0.730570
2.173255 0.335895 1.145399
0.926542 0.338537 0.874772
1.011931 0.264334 0.815504
-1.541062 -0.293517 0.501045
0.365979 0.528341 0.786090
1.081337 0.357787 0.883949
1.334811 0.403086 0.913756
1.644231 0.206966 0.935969
2.486110 -0.073116 0.932400
1.063476 0.369668 0.844485
2.682159 0.222655 1.111241
2.560567 0.189593 1.086057
0.423483 -0.421909 0.580802
0.635395 0.128862 0.947865
2.649177 0.263824 1.154255
1.294630 0.366165 0.898211
1.035578 0.268172 0.836857
1.353674 0.407503 0.928724
1.148903 0.378078 0.942305
0.920164 0.470223 0.824296
1.100244 -0.600183 0.467984
0.437082 -0.263141 0.737295
-1.814185 -0.324290 0.533915
-0.629825 -0.538509 0.713819
-1.901112 -0.295026 0.567473
-0.719410 0.225225 0.893194
-1.145366 -0.238455 0.339636
-1.749212 -0.322874 0.543899
-1.533283 -0.241571 0.529677
-1.847098 -0.271886 0.534105
-1.546939 -0.301687 0.529304
-1.728689 -0.258598 0.535701
-1.494256 -0.242633 0.579698
-1.903603 -0.272654 0.549498
-1.743847 -0.260154 0.540974
-0.891592 -0.142137 0.318110
-0.873040 0.129906 0.584229
1.959388 -0.114343 0.832992
0.459450 0.193367 0.928515
0.820990 0.392907 0.849656
1.042209 0.275502 0.846631
1.689396 0.216393 0.915936
2.129346 0.358220 1.123117
1.471995 0.179232 0.837964
2.488717 0.381272 1.163977
2.525101 0.354021 1.177667
2.370915 0.351939 1.126993
2.512349 0.267309 1.097399
0.665837 0.452826 0.809318
1.157784 0.349179 0.878095
1.099284 -0.548533 0.537675
1.178654 -0.461908 0.561581
2.477032 0.323460 1.132214
1.317211 0.383619 0.937733
1.507390 0.257160 0.894904
